63.18067516 -11.48191068 4.737102613
62.98301545 -11.86657711 4.113137867
63.00141552 -10.68151857 5.831144289
63.11596933 -9.519865802 7.568320039
62.96400772 -12.29474786 3.508100657
6.794711738 -4.089492303 0.585019992
6.771898696 -4.104116005 0.584137187
6.75560816 -4.694679864 -0.295907785
6.728733905 -4.741600133 -0.372785356
8.258045835 -5.388809677 -0.902779142
6.474757917 -5.064040482 -0.899646352
6.726463003 -4.656229034 -0.228225124
7.284515083 -5.217099966 -0.90870558
5.72088314 -4.917397898 -0.897276706
5.707271733 -4.936225427 -0.897512919
5.062246393 -4.806353858 -0.897813979
4.051223726 -4.624636147 -0.902287733
4.037016467 -4.637043405 -0.902287733
4.514001862 -4.703007011 -0.902816002
4.497500772 -4.714683363 -0.902404432
3.578285093 -4.545230142 -0.904314905
3.150155672 -4.464746277 -0.907237519
3.137575878 -4.47600551 -0.907565107
2.423744051 -4.332245072 -0.916199652
2.413306546 -4.344818739 -0.917288629
2.751401289 -4.396005023 -0.914159765
2.035477981 -4.263685157 -0.918033833
2.024908684 -4.275232798 -0.9191783
1.69849897 -4.207367677 -0.926995183
1.682671126 -4.205281695 -0.925393786
1.671928665 -4.215888497 -0.926594817
0.887156235 -3.81423971 -0.574711096
0.87522893 -3.815979262 -0.574565899
0.925200194 -4.068380894 -0.931615701
0.916984238 -4.090246522 -0.935974169
0.852013315 -3.822243369 -0.574711096
0.840707416 -3.826771977 -0.57500149
0.826241758 -3.816762231 -0.57311387
0.815353687 -3.823149658 -0.573694716
0.861878407 -4.078274277 -0.93074404
0.80260362 -3.820791827 -0.572968673
0.774998094 -3.805285149 -0.569919419
0.763514462 -3.808615082 -0.570064617
0.751060203 -3.807056658 -0.569483827
0.738811197 -3.806429198 -0.569048236
1.285659154 -4.133039656 -0.929190129
0.724346653 -3.794100096 -0.566870164
1.273260642 -4.137898679 -0.929399996
0.710512451 -3.784635534 -0.565127742
1.26226778 -4.147397691 -0.930659381
0.699436714 -3.789716593 -0.565563334
1.247283358 -4.143761159 -0.92898026
0.67778624 -3.887708932 -0.728349653
0.668012789 -3.902370928 -0.730709162
0.778390453 -3.828219906 -0.610702128
0.913872908 -3.886342559 -0.662861574
0.68284503 -3.922542031 -0.773643311
0.789653478 -3.761345476 -0.494320695
0.415983233 -3.095124171 0.345439295
0.396984067 -3.097618405 0.345439296
0.425410132 -3.349089025 0.00229797
0.386615582 -3.091917827 0.344669681
0.403653295 -3.341708373 0.002291163
0.883934651 -3.809465179 -0.541607265
0.732513685 -3.850284359 -0.650741089
0.721604751 -3.857361814 -0.651559998
0.709588681 -3.85858746 -0.651396206
0.696870181 -3.855892492 -0.650577296
0.711968476 -3.954417708 -0.820904161
0.701027678 -3.963336889 -0.822305348
0.689703502 -3.970295248 -0.823306227
0.816210276 -4.019521664 -0.88049528
0.505145047 -4.00116208 -0.93990049
0.802533339 -4.015295286 -0.879026024
0.493700389 -4.009458905 -0.941489309
0.380961702 -3.054224278 0.424300694
0.26967975 -3.071378703 0.341041576
0.480120621 -4.000318206 -0.938992591
0.3708721 -3.049478376 0.42348131
0.260675132 -3.077143694 0.341591309
0.468297924 -4.005641819 -0.93990049
0.361281528 -3.048634389 0.423208172
0.250990782 -3.074956917 0.341261458
0.456336954 -4.00996258 -0.940581413
0.241011026 -3.068776358 0.340491872
0.443389505 -4.005535698 -0.939219566
0.231595017 -3.069501323 0.340491872
0.212344364 -3.064915118 0.339832227
0.203334268 -3.071502703 0.340491871
0.674632606 -3.868074139 -0.69212972
0.695853449 -3.988512047 -0.869161157
0.664258444 -3.878861691 -0.693692077
0.685264469 -4.000264772 -0.871260016
0.184781887 -3.077653257 0.341041576
0.197727068 -3.380032073 -0.121785169
0.399928491 -3.058743587 0.395278621
0.187190446 -3.377629363 -0.12167733
0.27438477 -3.02883539 0.41924786
0.389914644 -3.055036583 0.394643117
0.17755849 -3.392159358 -0.122180586
0.371520557 -3.060325395 0.395024407
0.388901237 -3.222770108 0.177509932
0.527685659 -3.35563526 0.029466182
0.246576787 -3.032219922 0.419384415
0.351600849 -3.052693665 0.393753427
0.221436384 -3.086435203 0.31142286
0.212102615 -3.089085108 0.311623131
0.099844396 -3.126905421 0.230785683
0.202819771 -3.092699864 0.311923539
0.303651562 -3.046870926 0.392355341
0.193640865 -3.098272723 0.312424218
0.183957538 -3.095872597 0.31212381
0.283935232 -3.037813158 0.390957225
0.391876659 -3.083424864 0.368543061
0.265462689 -3.0414744 0.391211438
0.256712826 -3.04919331 0.392101127
0.246394674 -3.038102866 0.390575934
0.145061582 -3.396419296 -0.15395492
0.35231226 -3.073202918 0.366776857
0.135076051 -3.407828501 -0.154452574
0.228119139 -3.044503018 0.391211438
0.124401323 -3.40223701 -0.15418112
0.332271308 -3.064447012 0.365481677
0.113394343 -3.385629606 -0.153412026
0.322868147 -3.065451781 0.365481676
0.103401739 -3.398942282 -0.15400016
0.199438553 -3.036576127 0.389940458
0.092836884 -3.39425052 -0.15377396
0.294261132 -3.06433956 0.365010681
0.072008409 -3.394756061 -0.15377396
0.285409818 -3.071160645 0.365717146
0.174005802 -3.103211241 0.283623741
0.061339409 -3.380977628 -0.153140586
0.051116992 -3.391138546 -0.153592986
0.265873597 -3.064939585 0.364775184
0.040592964 -3.381290404 -0.153140586
0.25638644 -3.064751301 0.364657464
0.030156631 -3.374406499 -0.152823892
0.24658397 -3.06057424 0.36406872
0.226842243 -3.049155626 0.362538042
0.246146596 -3.387747902 -0.094759163
-9.01591E-4 -3.373542214 -0.152778652
0.217698402 -3.052808849 0.36289126
0.208466684 -3.055443754 0.363126757
0.19954362 -3.063005548 0.363950971
-0.156782699 -3.076637124 0.227254377
-0.04504112 -3.123249362 0.200459684
-0.064183656 -3.121916452 0.200395638
-0.073431232 -3.107737591 0.199499006
-0.12451616 -3.356248776 -0.152100039
-0.00824699 -3.14029744 0.171722157
-0.015536211 -3.484392854 -0.31900869
-0.13028662 -3.097882877 0.198986659
-0.017864192 -3.137261899 0.171558349
-0.026226104 -3.484328604 -0.319008689
-0.273807231 -3.303528675 -0.119233002
-0.18183932 -3.43460999 -0.282469652
-0.302916581 -3.286936775 -0.11872976
-0.20302787 -3.435419468 -0.282633356
-0.322687887 -3.281038018 -0.118585979
-0.218982622 -3.248496599 -0.029209159
-0.244389428 -3.421734023 -0.281732997
-0.142991173 -3.891641041 -0.948023942
-0.254515753 -3.415998862 -0.281323723
-0.132638399 -3.469943256 -0.317914645
-0.155355088 -3.901863414 -0.950625804
-0.265611502 -3.423151151 -0.28197854
-0.167450015 -3.904280379 -0.951335395
-0.179382773 -3.902777683 -0.951098826
-0.163955758 -3.455644286 -0.316729408
-0.191212716 -3.899297483 -0.950389232
-0.414557129 -3.350580393 -0.244906256
-0.174456268 -3.453135894 -0.316547077
-0.202770169 -3.890930118 -0.948496964
-0.214438707 -3.885438975 -0.947314289
-0.38952711 -3.035795073 0.225783006
-0.422668122 -3.265631446 -0.118442191
-0.437164715 -3.363798437 -0.246063838
-0.315595675 -3.391880556 -0.279768549
-0.226075463 -3.879912962 -0.946131672
-0.400268509 -3.045462449 0.226592259
-0.432290998 -3.26134719 -0.118334351
-0.325904944 -3.389904104 -0.279686682
-0.237204377 -3.866593937 -0.94305673
-0.293478855 -3.012448377 0.304613597
-0.408413057 -3.035324598 0.22593014
-0.444175608 -3.273869506 -0.1188376
-0.417451327 -3.032081301 0.225783006
-0.454354999 -3.273481184 -0.118873542
-0.462429767 -3.258219802 -0.1183703
-0.2727815 -3.864247027 -0.94305673
-0.211961239 -3.032969976 0.277444171
-0.285420858 -3.874050544 -0.945658589
-0.329881047 -3.003674993 0.304112918
-0.221265267 -3.032305253 0.27744417
-0.297230563 -3.872188177 -0.94542208
-0.338313062 -2.995727926 0.303411967
-0.230189599 -3.026647301 0.276989804
-0.308876874 -3.868352119 -0.944712426
-0.240259802 -3.035854243 0.277898565
-0.319297854 -3.849956967 -0.940454865
-0.35668813 -2.993595686 0.303411967
-0.249246101 -3.03113298 0.277535067
-0.331607493 -3.854767746 -0.941874054
-0.366232914 -2.995450141 0.303712374
-0.258798282 -3.033330834 0.27780767
-0.343432214 -3.8537322 -0.941874054
-0.376040008 -2.999248624 0.304213053
-0.266699981 -3.016650675 0.276353673
-0.547015721 -3.32646542 -0.244544486
-0.354718381 -3.846855335 -0.940454867
-0.276044416 -3.016809991 0.276444541
-0.28604886 -3.023880315 0.277171539
-0.437144404 -3.287665566 -0.150199917
-0.295808762 -3.027944151 0.277625934
-0.187936995 -3.065991702 0.251194202
-0.447632884 -3.289278487 -0.150335651
-0.578633846 -3.327185767 -0.244978587
-0.303499088 -3.011168979 0.276171909
-0.196766174 -3.056449153 0.250460677
-0.458135382 -3.290857996 -0.150471371
-0.59075173 -3.336197932 -0.245774457
-0.312838697 -3.011214207 0.276262777
-0.382054273 -3.252089419 -0.05978555
-0.376933009 -2.999849513 0.275899277
-0.395462859 -2.998467635 0.275990174
-0.316583714 -3.280477131 -0.091942598
-0.334970256 -3.261568502 -0.091468525
-0.354760109 -3.25746413 -0.09141275
-0.607758473 -3.259423869 -0.150154677
-0.375884049 -3.2651566 -0.091691618
-0.386838591 -3.271929738 -0.091914711
-0.395068742 -3.255842558 -0.091496413
-0.374129784 -3.036827001 0.25021615
-0.406660585 -3.26751061 -0.091858943
-0.381946075 -3.023799132 0.249238126
-0.41516526 -3.254348528 -0.0915243
-0.392756366 -3.034474326 0.25021615
-0.425536129 -3.256033218 -0.091607963
-0.436451548 -3.26164773 -0.091803168
-0.446049236 -3.257322301 -0.091719506
-0.456179116 -3.256928363 -0.091747393
-0.464185391 -3.24166041 -0.091356983
-0.592266796 -3.27789191 -0.183139393
-0.476009931 -3.253079092 -0.091719506
-0.495358315 -3.24614431 -0.091607963
-0.503469098 -3.232756865 -0.09127332
-0.515580699 -3.245018217 -0.091663731
-0.567496577 -3.302624787 -0.216290084
-0.573648526 -3.226120846 -0.09141275
-0.587750424 -3.299080467 -0.216290084
-0.599471485 -3.306098973 -0.216869783
-0.592708674 -3.218607852 -0.091301208
-0.611241136 -3.313076428 -0.217449468
-0.622496937 -3.213997667 -0.091329095
-1.408431855 -3.685832907 -0.960560168
-1.41938365 -3.680588201 -0.9603236
-1.433840214 -3.684365344 -0.962452436
-1.45677804 -3.676401459 -0.962688949
-1.46552527 -3.665599559 -0.96103325
-1.474583545 -3.655679652 -0.959614006
-1.486158248 -3.652038339 -0.959850575
-1.553022491 -3.654745092 -0.966710055
-1.566524153 -3.655321613 -0.968129242
-1.575803844 -3.646039117 -0.966946568
0.408375558 -3.302331547 0.052435919
