-10.36845697 18.28599918 0.579826475
-10.28141317 18.26284466 0.578089357
-10.21216659 18.270743 0.577344895
-7.486574115 17.61276577 0.345747234
-7.418524981 17.6024832 0.345096977
-7.355234752 17.6030185 0.344663443
-7.293924897 17.60795155 0.34432024
-5.424198068 12.35525875 0.117049349
-5.423388994 12.45710803 0.117856054
-5.402584793 12.5140825 0.118237717
-5.374792148 12.55541896 0.118471919
-5.080759033 17.35281035 0.156846477
-5.023048667 17.35294684 0.156707687
-3.074202117 17.65839418 0.012200479
-4.970062244 17.36923802 0.15671636
-3.02102359 17.67365675 0.012204563
-4.91239653 17.36900911 0.156577585
-2.966290815 17.6798837 0.012202521
-4.858816741 17.38303517 0.156568913
-2.911386132 17.68495427 0.012199798
-2.855999836 17.68689247 0.012195033
-0.911813425 17.40442975 -0.156353328
-0.859250384 17.42412455 -0.156505827
-0.804127095 17.39071826 -0.156182889
-0.752882404 17.44205689 -0.156622458
-0.697244316 17.39132898 -0.156146992
1.177019578 17.31915829 -0.316945551
1.228448079 17.29152982 -0.316507456
1.28097448 17.28069887 -0.316379664
1.333600048 17.2717042 -0.31628838
0.491071343 11.97527294 -0.334362072
1.386502648 17.26653517 -0.316270111
1.935262256 14.46241549 -0.407062841
1.980030112 14.45938157 -0.407146496
2.024520164 14.45422903 -0.407174361
3.682687553 17.56613547 -0.500706536
3.738851631 17.56550957 -0.501013262
3.811090422 17.63896075 -0.503439409
5.854203064 17.54829561 -0.665397098
3.874822738 17.67112493 -0.504694325
5.914715397 17.55013936 -0.666151931
3.932492133 17.6747661 -0.505140526
5.971429224 17.54042591 -0.666475465
3.995722707 17.70259573 -0.506283862
6.034638499 17.54942871 -0.667517891
6.095336255 17.55065657 -0.668272783
13.78395474 22.66672238 -1.201418367
13.73344577 22.42837924 -1.191012946
13.72826758 22.2662416 -1.184634056
13.25957598 17.84805409 -1.222466404
13.2819832 17.7641078 -1.219501908
13.32201135 17.70412656 -1.218184406
13.37686712 17.66396952 -1.218239243
10.53274478 11.05440974 -1.107612858
10.42649408 10.87588909 -1.092925796
10.47435336 10.85892475 -1.094445119
10.4777495 10.79596285 -1.091333995
8.197029263 8.439969343 -0.966257385
8.209649723 8.401237387 -0.964702181
8.194858755 8.334791705 -0.95995479
8.209876827 8.298983806 -0.958727053
8.219831866 8.258216859 -0.956926279
8.245128708 8.232959556 -0.956926278
8.257614888 8.194988857 -0.955452971
13.0740774 14.38356643 -1.25458562
13.13161368 14.35811615 -1.255873796
13.16276368 14.30380872 -1.254649993
13.23505998 14.2941133 -1.25735521
13.25504342 14.22788606 -1.255100843
7.301519658 6.889820307 -0.919098775
7.313906685 6.859212615 -0.918004732
7.327631316 6.829951993 -0.91709302
7.349281529 6.808115734 -0.917184215
7.391379552 6.8050969 -0.919828158
7.390916601 6.762893018 -0.917184214
7.410156645 6.738846137 -0.917001883
7.405677462 6.693377341 -0.913902025
6.231396807 4.852374562 -0.864395928
7.415805802 6.661309086 -0.912625651
6.237606054 4.82654231 -0.863199185
6.239775692 4.797688248 -0.861458432
6.235507713 4.764038534 -0.858847272
6.247718908 4.743082602 -0.858520877
6.260654103 4.722694961 -0.858303319
6.27034078 4.699888207 -0.857650529
6.277555221 4.675285101 -0.856671344
6.28867275 4.653638742 -0.856236112
6.30292041 4.634323525 -0.856236112
6.31710864 4.61496432 -0.856236111
6.643401766 5.639523423 -0.883783269
6.684245606 5.639002214 -0.8869112
6.671018618 5.592901523 -0.882875192
6.678973337 5.564766572 -0.881664382
6.685285952 5.535366521 -0.880251753
6.700700559 5.51356577 -0.88004999
6.729907342 5.503059313 -0.881664383
6.757568349 5.491169971 -0.883076953
6.765868951 5.463536826 -0.881967055
5.839192519 4.047679401 -0.845072336
6.785702951 5.445244375 -0.882370698
5.846676113 4.02636643 -0.844363695
6.788375247 5.413235152 -0.880554484
5.864738542 4.012335078 -0.845190472
5.879484299 3.995998053 -0.845544821
5.894184962 3.979608408 -0.845899112
5.913788668 3.96648446 -0.8469621
5.930061882 3.951075806 -0.847552664
5.945467939 3.935056151 -0.84802509
5.954193249 3.914615078 -0.847552663
5.968669429 3.897958245 -0.847906954
5.966437934 3.870441255 -0.845899111
5.966598002 3.844588472 -0.844245618
5.970001261 3.820912024 -0.843064493
5.977505548 3.799914723 -0.84247393
5.986616529 3.779967693 -0.84211964
5.604251654 3.322936523 -0.837985221
5.592198195 3.292643113 -0.83466852
5.622822872 3.287485686 -0.837730113
5.622588812 3.26424396 -0.836199286
5.637733002 3.249950796 -0.836964671
5.647677069 3.232639231 -0.836964671
5.652394306 3.212356716 -0.836199287
5.65185754 3.189151402 -0.83466852
5.652961838 3.166949086 -0.833392802
5.655717212 3.145734273 -0.83237231
5.654054483 3.122135239 -0.830713931
5.658387778 3.101913363 -0.829948547
5.665264318 3.083116715 -0.829565826
5.678186956 3.06760733 -0.830076101
5.687571736 3.050172434 -0.830076102
5.702155755 3.035505282 -0.830841485
5.717580241 3.021240528 -0.831734481
5.731214015 3.005988652 -0.832372311
5.287045398 2.029910138 -0.831138562
5.296946977 2.015087389 -0.83171935
5.309584999 2.001269835 -0.832735787
5.326822469 1.989124324 -0.83447821
5.335684169 1.973802145 -0.834913802
5.337998303 1.956061682 -0.834333013
5.337464167 1.937312719 -0.833316576
5.339658375 1.919589552 -0.832735788
5.341794293 1.901871268 -0.832154942
5.426741261 2.614022013 -0.834223335
5.329874846 1.879222954 -0.829396139
5.437416436 2.598642291 -0.834634904
5.337483674 1.863514636 -0.829686534
5.328213787 1.841958487 -0.827363264
5.461325936 2.569024546 -0.835869613
5.350689697 1.831370174 -0.829976929
5.471875198 2.553514068 -0.836281126
5.344100846 1.81081808 -0.828089308
5.478784601 2.536298532 -0.836143975
5.330870498 1.788121149 -0.82518525
5.484739689 2.518651095 -0.835869614
5.330697276 1.769887259 -0.82431401
5.492440797 2.50181224 -0.835869614
5.330462437 1.751671333 -0.823442828
5.500090249 2.484949884 -0.835869613
5.320757032 1.730413503 -0.821119558
5.505880356 2.467254116 -0.835595195
5.320389904 1.71226282 -0.820248376
5.507087904 2.447534747 -0.834634906
5.319018932 1.693830516 -0.81923194
5.504600289 2.426233084 -0.833125894
5.331739831 1.67988269 -0.820393574
5.512017859 2.409333671 -0.833125893
5.34348073 1.665578254 -0.821410012
5.523928042 2.394381504 -0.833811824
5.347619795 1.648885278 -0.821264756
5.529427478 2.376640635 -0.833537462
5.535781737 2.35927702 -0.833400253
5.404051516 1.630042185 -0.828379701
5.550293582 2.34536697 -0.834497754
5.416612195 1.615717691 -0.829541337
5.562944192 2.330624425 -0.835320834
5.426288394 1.600491658 -0.830267322
5.574642414 2.315446359 -0.836006765
5.426423945 1.582451491 -0.829541336
5.579887939 2.297578509 -0.835732405
5.433154541 1.566344213 -0.82983173
5.585076105 2.279699991 -0.835458044
5.450304417 1.553193239 -0.831719351
5.592044169 2.262554658 -0.835458045
5.520756018 1.554973015 -0.841738297
5.613669117 2.251286873 -0.837652986
5.541704206 1.542538535 -0.844206762
5.615947221 2.232224508 -0.836967056
5.546410759 1.525529652 -0.844206763
5.618160822 2.213169332 -0.836281125
5.545336055 1.506949485 -0.843335521
5.606469721 2.18871807 -0.833537463
5.546110919 1.488903385 -0.842754733
5.545870994 1.470613265 -0.842028748
5.549399432 1.453341195 -0.84188355
5.550958452 1.43556582 -0.841447901
5.60326908 1.43076816 -0.848708045
5.65464217 1.425421166 -0.855822933
5.672430589 1.411410861 -0.857855808
5.679616459 1.394709267 -0.858291399
5.684830057 1.377510902 -0.858436595
5.68518032 1.359143423 -0.857855807
5.673915711 1.338061519 -0.855532539
5.360708232 0.953632733 -0.851183503
5.363608565 0.937181807 -0.851183503
5.367432474 0.920889133 -0.851337939
5.366335369 0.903761455 -0.850720137
5.361284275 0.886004761 -0.849484531
5.354224689 0.867971374 -0.847939997
5.356862486 0.851540798 -0.847939997
5.366283239 0.836166935 -0.849021166
5.370776781 0.819997743 -0.849330096
5.3879241 0.805708334 -0.851646869
5.396236051 0.790033383 -0.852573543
5.405480646 0.774455075 -0.853654712
5.401960738 0.757044956 -0.852728038
5.40327877 0.740334311 -0.852573543
5.399649091 0.722967074 -0.851646869
5.408699418 0.707294581 -0.852728037
5.41476422 0.691198004 -0.85334584
5.412937797 0.674094106 -0.852728039
5.427730534 0.659032375 -0.854735881
5.415990575 0.640752161 -0.852573543
5.421856829 0.624585394 -0.853191403
5.463021862 0.612350668 -0.859369427
5.449159843 0.593874775 -0.856898218
5.422463231 0.574137322 -0.852419107
5.396680196 0.554670381 -0.848094492
5.413103405 0.53958095 -0.850411264
5.403915649 0.521926451 -0.848712294
5.413361215 0.50608073 -0.849947898
5.405048371 0.48858093 -0.848403363
5.401600655 0.471566529 -0.847631125
5.404006551 0.455075338 -0.847785561
5.413255496 0.439133015 -0.849021166
5.419502235 0.422907652 -0.849793463
5.421759237 0.406352695 -0.849947898
5.4259369 0.38992951 -0.850411265
5.433021799 0.373687919 -0.851337939
5.429213315 0.356694036 -0.850565701
5.420421368 0.339418313 -0.849021166
5.421436969 0.322787093 -0.849021165
5.425361238 0.3063199 -0.849484532
5.413449707 0.288989024 -0.847476689
5.409376865 0.272131215 -0.846704392
5.395382912 0.254834995 -0.84438762
5.407984036 0.238804023 -0.846241027
5.40474221 0.222049214 -0.845623224
5.401448849 0.205316546 -0.845005421
5.401066065 0.188709668 -0.844850986
5.401619752 0.172138541 -0.844850987
5.403109911 0.155594236 -0.845005422
5.002683588 0.311649575 -0.832221319
5.005585744 0.296416713 -0.832548906
5.007456462 0.28111369 -0.832712699
5.008295263 0.265749709 -0.832712699
5.006131381 0.250235479 -0.832221319
5.436673029 0.056442501 -0.849947899
5.439784184 0.039784435 -0.850411264
5.031878461 0.205113985 -0.836152304
5.023611861 0.189341041 -0.83467822
5.02022565 0.173791398 -0.834023047
5.015805141 0.158233221 -0.833204079
5.018239127 0.142900363 -0.833531666
5.014709273 0.127403721 -0.832876492
5.015076571 0.112018218 -0.832876492
5.010465174 0.096536633 -0.832057525
5.010737506 0.081164293 -0.832057524
5.008003818 0.065752331 -0.831566144
5.019033043 0.05049685 -0.833367873
5.00831321 0.035022556 -0.831566145
5.00839704 0.019657103 -0.831566145
5.005474373 0.004288929 -0.831074823
4.998558158 -0.011052401 -0.829928267
5.002447034 -0.02640854 -0.830583443
5.017139096 -0.041879221 -0.833040286
5.04658017 -0.057609206 -0.837954033
5.031583797 -0.07287732 -0.835497131
5.033309113 -0.088348285 -0.835824718
5.020192834 -0.103525438 -0.833695461
5.00703074 -0.118622944 -0.831566146
5.005656977 -0.133957344 -0.831402409
5.014096961 -0.149578591 -0.832876493
5.022488269 -0.165252898 -0.834350635
5.021957439 -0.180660893 -0.834350634
5.014479529 -0.195797767 -0.83320408
5.007941426 -0.210931968 -0.832221319
5.013183547 -0.226562346 -0.83320408
5.022318527 -0.24241711 -0.834842015
5.03435836 -0.258481823 -0.836971271
5.048317423 -0.274729878 -0.839428116
5.044496142 -0.290046716 -0.838936736
5.053429738 -0.306118139 -0.840574672
5.024900583 -0.319865661 -0.835988511
4.994366287 -0.333309645 -0.831074822
4.984463263 -0.348012184 -0.82960068
4.997146544 -0.364306861 -0.831893731
5.022564197 -0.381654317 -0.836316098
5.018419334 -0.396828246 -0.835824717
5.025043797 -0.412868907 -0.837135065
4.997214348 -0.426021091 -0.832712699
4.984091946 -0.440308594 -0.830747236
4.988611998 -0.456136433 -0.831729939
4.992099654 -0.471903334 -0.832548906
4.972955621 -0.485491311 -0.829600682
4.986165422 -0.502228782 -0.832057525
4.978713824 -0.516912565 -0.831074822
5.000646317 -0.534701836 -0.835005808
5.004865694 -0.550688451 -0.835988511
5.000212039 -0.565707838 -0.835497131
4.990613538 -0.580134372 -0.83418684
4.979015133 -0.594273477 -0.832548906
4.980105795 -0.609905841 -0.833040286
4.982126717 -0.625673382 -0.833695461
4.988010927 -0.641962812 -0.835005808
4.984061751 -0.657004897 -0.83467822
4.981045218 -0.672160771 -0.834514428
4.980913977 -0.687709088 -0.834842015
4.990502534 -0.704642153 -0.836807479
4.989293539 -0.720090421 -0.836971272
4.998771844 -0.737120914 -0.838936735
5.022825577 -0.756419927 -0.843359103
5.015605891 -0.771076659 -0.842540134
4.995674151 -0.783708713 -0.839591909
5.001039044 -0.800278586 -0.840902257
4.988824325 -0.814029142 -0.839264323
4.98046478 -0.828359696 -0.83828162
4.970118674 -0.842316935 -0.836971271
4.950013085 -0.85454033 -0.834023047
4.959027405 -0.871772304 -0.835988511
4.969924222 -0.88941525 -0.838281619
4.971054399 -0.905365613 -0.838936736
4.967283583 -0.920432587 -0.838772943
4.961528111 -0.935119536 -0.838281621
4.965417562 -0.951636722 -0.839428116
4.958601479 -0.966111284 -0.838772942
4.94400192 -0.979020001 -0.836807479
4.930336897 -0.992042833 -0.835005809
4.916638431 -1.004991074 -0.83320408
4.921259029 -1.021674542 -0.834514427
4.921962819 -1.037581884 -0.835169544
4.923579685 -1.053709573 -0.835988512
4.927071883 -1.070275883 -0.837135066
4.92280158 -1.085174514 -0.836971272
4.92233732 -1.100918282 -0.837462653
4.917012587 -1.115578028 -0.837135066
4.907798699 -1.129330659 -0.836152305
4.896625413 -1.142588884 -0.834842015
4.896936677 -1.158514612 -0.83549713
4.896237448 -1.174222986 -0.835988512
4.88015013 -1.186209852 -0.833859253
4.888940283 -1.204243582 -0.835988511
4.873736867 -1.216370463 -0.834023046
4.867113102 -1.230591715 -0.833531667
4.857581026 -1.244049535 -0.832548906
4.855651085 -1.259441869 -0.832876492
4.862259784 -1.277089517 -0.834678221
4.868805934 -1.294789613 -0.836479892
4.868620966 -1.310746631 -0.837135066
4.867432171 -1.32645534 -0.837626447
4.861437723 -1.340857526 -0.837298859
4.853500553 -1.354705043 -0.836643686
4.839827897 -1.366907726 -0.835005809
4.814743485 -1.375786872 -0.831402408
4.804813819 -1.38890811 -0.830419648
4.803370808 -1.404473049 -0.830911029
4.805661339 -1.421161327 -0.832057525
4.813565578 -1.439572698 -0.834186841
4.828955588 -1.460330383 -0.837626445
4.802754811 -1.46850426 -0.833859253
4.799169368 -1.483523307 -0.834023046
4.805894473 -1.501770715 -0.83598851
4.802205355 -1.516805131 -0.836152304
4.790951112 -1.52943087 -0.835005809
4.784358327 -1.543516386 -0.834678221
4.778662367 -1.557881521 -0.834514427
4.768238936 -1.570683066 -0.833531668
4.767141381 -1.586550506 -0.83418684
4.770667128 -1.603997913 -0.835660924
4.774130774 -1.621481769 -0.837135066
4.763534769 -1.634200316 -0.836152304
4.777140996 -1.655266472 -0.839428115
4.782282772 -1.673499003 -0.841229844
4.707526372 -1.794699887 -0.836479892
4.67990106 -1.800632054 -0.832548905
4.689068846 -1.820694369 -0.835169544
4.672438659 -1.830753018 -0.83320408
4.686982995 -1.853058671 -0.836807479
4.669364055 -1.862677743 -0.834678221
4.65749962 -1.90781813 -0.835660923
4.64797777 -1.920591187 -0.835005807
4.86792543 -2.240816392 -0.837746231
4.633868604 -1.931426194 -0.833531666
4.868197722 -2.259067554 -0.838981836
4.631559104 -1.947162909 -0.834186841
4.854979175 -2.271062001 -0.837900666
4.835478128 -2.280047011 -0.83573833
4.825783068 -2.29359881 -0.835274963
4.845454809 -2.321198826 -0.83990851
4.8276341 -2.330898506 -0.838055103
4.81246491 -2.341807811 -0.836665063
4.814128371 -2.360911458 -0.83820954
4.803319506 -2.37391911 -0.837591737
4.821660942 -2.401417754 -0.842070847
4.830165049 -2.4241763 -0.844850986
4.833285 -2.444334092 -0.846704392
4.815199819 -2.453767967 -0.844850986
4.797102053 -2.463113783 -0.842997579
4.788645266 -2.477365462 -0.842843085
4.766128268 -2.484281878 -0.84021744
4.766356685 -2.503026648 -0.841607481
4.761274849 -2.519023816 -0.842070846
4.740446221 -2.52664885 -0.839754075
4.72483781 -2.536973914 -0.838364033
4.706604204 -2.545816918 -0.836510569
4.710049799 -2.566389823 -0.838518469
4.703886441 -2.581778747 -0.838827341
4.689890828 -2.592851769 -0.837746231
4.682777194 -2.607708694 -0.837900667
4.67820155 -2.623996098 -0.838518468
4.677871452 -2.642710092 -0.83990851
4.666306855 -2.655094757 -0.839290708
4.676140586 -2.679714321 -0.842534213
4.659340353 -2.689109172 -0.840989678
4.655339166 -2.705873756 -0.841761974
4.653837328 -2.724136082 -0.842997579
4.648862463 -2.74040807 -0.843615382
4.647229522 -2.758692304 -0.844850986
4.639592487 -2.773443656 -0.845005423
4.817688257 -3.145023975 -0.844351959
4.623443208 -2.78307901 -0.843615381
4.812977676 -3.163049957 -0.845223199
4.615727982 -2.797762415 -0.843769817
4.808201983 -3.181076706 -0.846094382
4.602906547 -2.80933661 -0.84299758
4.808301682 -3.202394404 -0.847836805
4.800919539 -3.21878381 -0.848272454
4.788561334 -3.231837321 -0.847836804
4.773713286 -3.24317715 -0.846965622
4.758024297 -3.253897878 -0.845949185
4.746389102 -3.267357868 -0.84565879
4.73634245 -3.281904168 -0.84565879
4.745728058 -3.310003932 -0.849143636
4.747697134 -3.333075293 -0.851321708
4.758457846 -3.362470794 -0.855096948
4.73441297 -3.367304981 -0.852628482
4.70957864 -3.371447606 -0.850014876
4.696805128 -3.384145273 -0.849579228
4.688002424 -3.399700719 -0.84986968
4.683144293 -3.418150434 -0.850886059
4.67741992 -3.436016376 -0.851757299
4.674811855 -3.456232275 -0.853209327
4.670536457 -3.475283142 -0.854370903
4.676483662 -3.502050306 -0.857420159
4.660976696 -3.512808024 -0.856548976
4.650177705 -3.527091125 -0.856548976
4.989503381 -3.76452187 -0.865638796
4.974774808 -3.777415666 -0.865090017
4.956866364 -3.787848644 -0.863992576
4.95542947 -3.810888366 -0.865775947
4.958598494 -3.837592251 -0.868382459
4.96399403 -3.866177392 -0.87140054
4.955227653 -3.883832852 -0.871949319
4.944844464 -3.90024392 -0.872223679
4.940614047 -3.921554167 -0.87359554
4.908436825 -3.920620111 -0.87002868
2.192806163 -2.446721195 -0.638408356
2.06393315 -2.37695286 -0.643151666
2.064312197 -2.392174766 -0.645553733
2.045482763 -2.385109872 -0.641950634
2.026715987 -2.377952087 -0.63834759
2.022577313 -2.387896653 -0.639348413
1.931296795 -2.427347875 -0.633743609
1.909864557 -2.415584737 -0.629139685
1.888522936 -2.403713016 -0.624535705
1.881742513 -2.410267847 -0.624735915
1.856322306 -2.392805955 -0.618730747
1.832821741 -2.377539081 -0.613326098
1.803957133 -2.370029375 -0.608521963
1.789585395 -2.366175558 -0.606119897
1.776431503 -2.363822494 -0.604118194
1.766240069 -2.365336024 -0.60311737
1.765065027 -2.394267477 -0.607721294
1.736504213 -2.386040369 -0.602917161
1.74525042 -2.413586905 -0.608521963
1.717829462 -2.391080485 -0.601515974
1.730408081 -2.424250218 -0.608521964
1.726363047 -2.43434264 -0.609722997
1.716629199 -2.436423891 -0.608922327
1.71083184 -2.444086938 -0.609522843
1.701647232 -2.446911217 -0.608922327
1.690790783 -2.447283785 -0.607721295
1.680502436 -2.448420432 -0.606720413
1.6702231 -2.44951721 -0.60571959
1.650062446 -2.435972655 -0.60111561
1.62015495 -2.407696167 -0.592908585
1.567490163 -2.356857606 -0.607636183
1.48171869 -2.436984066 -0.582699858
1.471702943 -2.437325001 -0.581698979
1.540392474 -2.36299389 -0.605537264
1.471257277 -2.470721704 -0.587503935
1.518256034 -2.344729316 -0.599660307
1.471150673 -2.48787423 -0.59050652
1.479386434 -2.519411746 -0.596912049
1.511735997 -2.366360142 -0.602808684
1.471650045 -2.523938582 -0.596912049
1.503421365 -2.369335715 -0.602388888
1.466845236 -2.53352919 -0.598113027
1.489889569 -2.36401119 -0.599870176
1.465413551 -2.549059765 -0.600715304
1.486261223 -2.374372202 -0.601339429
1.735583412 -3.057543574 -0.61973988
1.708304287 -3.031109906 -0.613316823
1.02222893 -6.538900617 -0.605925065
1.004424914 -6.55677105 -0.607292633
0.985190956 -6.565730786 -0.607839684
0.963740212 -6.559855124 -0.607019108
0.945311032 -6.574609306 -0.60811321
0.925135993 -6.577478283 -0.608113209
0.90495221 -6.58028571 -0.60811321
0.884361996 -6.580070428 -0.607839685
0.864040844 -6.581764842 -0.607748489
0.644705898 -7.041741625 -0.58073663
0.843211212 -6.579446157 -0.607292633
0.622747779 -7.039715436 -0.580409221
0.822898232 -6.581014137 -0.607201497
0.601740775 -7.048543939 -0.5809822
0.580685374 -7.057309948 -0.581555179
0.558637729 -7.054090627 -0.581145875
0.536237099 -7.045833493 -0.580327384
0.513747286 -7.035517349 -0.579345159
0.492160229 -7.037060595 -0.579345159
0.471166844 -7.047487291 -0.580081813
0.450494731 -7.063819111 -0.581309609
0.43020987 -7.088048282 -0.583192162
0.407200776 -7.067445197 -0.581391446
0.08915675 -7.498764888 -0.54400296
0.066168043 -7.500997456 -0.544147679
0.04316073 -7.502162839 -0.544220039
0.020160283 -7.508243914 -0.544654139
-0.002874779 -7.508270565 -0.54465414
-0.025940791 -7.517202605 -0.545305261
-0.049133156 -7.53703512 -0.546752283
-0.072265786 -7.537846101 -0.546824643
-0.095365987 -7.535594335 -0.546679923
-0.118609861 -7.543244547 -0.547258744
-0.286236798 -8.133030247 -0.525266704
-0.311149064 -8.131116867 -0.52520233
-0.336093539 -8.130124237 -0.525202331
-0.361034824 -8.129054813 -0.525202331
-0.386020041 -8.128906138 -0.525266705
-0.410906977 -8.126686537 -0.525202331
-0.43567701 -8.122397916 -0.525009092
-0.460368082 -8.117037819 -0.524751422
-0.485149506 -8.113595059 -0.524622616
-0.509538457 -8.104100735 -0.524107334
-0.534858761 -8.109469878 -0.524558184
-1.258867371 -8.098362481 -0.45060196
-1.284488797 -8.099393154 -0.45087644
-1.310287944 -8.101328349 -0.451205844
-1.335623593 -8.100225576 -0.451370532
-1.360137523 -8.094120264 -0.45126074
-1.385805991 -8.094830346 -0.451535219
-1.410634033 -8.090540749 -0.45153522
-1.436495981 -8.092073769 -0.451864595
-1.462380587 -8.093524253 -0.452194
-2.201455546 -8.042599265 -0.377626118
-2.226653044 -8.037732648 -0.377716598
-2.250762545 -8.028940157 -0.377626118
-2.275657055 -8.022957598 -0.377671358
-2.303291384 -8.026500739 -0.378169026
-2.342108646 -8.068324771 -0.380476322
-2.371916703 -8.078354654 -0.381290641
-2.400955068 -8.085404704 -0.38196927
-4.823082719 -11.53194689 -0.228225631
-4.861548389 -11.52446517 -0.228371677
-4.900013654 -11.516856 -0.228517709
-3.01588003 -5.47602742 -0.283117798
-3.030242942 -5.462381008 -0.282891598
-3.90221385 -8.098387959 -0.250785512
-3.93009764 -8.092671686 -0.250980717
-3.957104195 -8.085065545 -0.251120133
-3.993829312 -8.09709301 -0.251873088
-4.025326054 -8.098228874 -0.252291394
-4.055524515 -8.096566017 -0.252626044
-4.083948355 -8.09122514 -0.252849115
-4.11011214 -8.081330777 -0.25293277
-4.93898305 -8.008986012 -0.171799032
-4.975661581 -8.013331788 -0.172218901
-5.018773394 -8.027701878 -0.172857819
-5.050835248 -8.02411262 -0.173113403
-2.601096085 -3.658191755 -0.289717939
-9.696078977 -12.17909842 0.135039596
-9.775019213 -12.12482424 0.135100318
1.496730386 -4.544410951 -0.615018202
4.704788681 6.161658734 -0.72552765
3.390737405 3.618025538 -0.658915286
