0.802899495 8.861145918 1.314336637
0.825651264 8.81136298 1.307322124
0.860019453 8.884608281 1.318574529
0.886387998 8.873068557 1.317259293
0.914214134 8.876211086 1.318136076
0.933404954 8.797616531 1.306883791
0.964149981 8.829130788 1.311998466
0.143336204 7.05127393 1.100014652
1.961440247 6.872130581 0.915749985
1.984165537 6.871798295 0.916512567
2.005516501 6.866630793 0.916639645
15.4401094 34.9905633 4.230476896
9.837624955 12.79929482 1.190860019
13.1951254 11.19303933 0.643243742
25.94567971 12.27731475 -0.257508878
25.95878346 12.18618399 -0.257266674
22.2368479 9.12159699 -0.438835082
14.0745449 4.271629343 -0.529053797
14.10098424 4.232451132 -0.529557039
14.20300076 4.215615527 -0.532900025
14.71451569 5.195848439 -0.43534
14.75397596 5.158928922 -0.436037165
14.79712732 5.123124243 -0.436845881
15.21372238 3.70747507 -0.709151771
15.24348044 3.665219929 -0.71001133
13.72416517 2.587246593 -0.767856891
13.76934594 2.552043963 -0.769943053
13.85373174 2.523746429 -0.774225051
10.62377524 0.877942786 -0.773281524
10.63834938 0.846294468 -0.774149725
10.6587967 0.815021236 -0.775452027
11.96430077 1.570144776 -0.778850433
12.01261493 1.53901129 -0.781684515
12.05193734 1.506482041 -0.783938822
7.349592179 0.197554336 -0.603818767
7.347174438 0.174934009 -0.603573196
7.339705061 0.152227036 -0.602918437
7.338144626 0.129673202 -0.602754704
8.666279035 -0.278026554 -0.793829304
8.674341536 -0.304927901 -0.794649879
8.681326837 -0.331843276 -0.795379203
8.692207395 -0.358968721 -0.796473305
8.701013208 -0.386075776 -0.797385017
7.287455912 -1.066068016 -0.806080531
7.271369964 -1.086510835 -0.804666113
7.274881504 -1.109863404 -0.805427741
7.256708831 -1.12988321 -0.803795766
7.279715295 -1.15635174 -0.806733262
7.286927437 -1.180428676 -0.807930063
7.289156585 -1.203750884 -0.808582854
7.939027307 -0.747034026 -0.808713663
7.957492072 -0.773408217 -0.810832547
7.962011701 -0.798512788 -0.811538862
7.960514089 -0.82303844 -0.811639773
7.954983832 -0.847140984 -0.811337042
7.946413705 -0.870892247 -0.810731638
6.715298416 -1.452416555 -0.81719858
6.711780801 -1.473224837 -0.817316657
6.69753715 -1.491650664 -0.816135591
6.683243369 -1.510003004 -0.814954466
6.688258092 -1.532717879 -0.816135591
6.710606735 -1.559523736 -0.819442636
6.714489318 -1.582154005 -0.820505625
6.153527315 -1.795752901 -0.82446319
6.14894041 -1.814904006 -0.824590745
6.145244149 -1.834327425 -0.824845853
6.141486764 -1.853745402 -0.82510102
6.138616683 -1.873447026 -0.825483683
6.133787665 -1.89256362 -0.825611237
6.136473985 -1.914030956 -0.826759341
6.135302597 -1.93433952 -0.827397171
5.167688516 -2.376795953 -0.834768605
5.157679385 -2.391390554 -0.834333014
5.15748912 -2.410554323 -0.835494649
5.161704667 -2.431847759 -0.837382268
5.157794738 -2.449369776 -0.837963056
5.157395121 -2.468599696 -0.83912469
5.158708606 -2.488709754 -0.840576719
5.143931046 -2.501063476 -0.839415085
5.133567876 -2.515527085 -0.838979493
5.126713571 -2.531702923 -0.839124691
5.121579518 -2.548741975 -0.839560282
5.637936069 -2.128876955 -0.834634905
5.634155261 -2.14722216 -0.835046475
5.639559647 -2.169120293 -0.836829905
5.630108043 -2.185336704 -0.836418335
5.635367215 -2.207295694 -0.838201707
5.63962347 -2.228943346 -0.839847986
5.622637455 -2.242198934 -0.838338916
5.633191992 -2.266463303 -0.840945427
5.633554953 -2.286715377 -0.842042927
4.705548734 -2.715777961 -0.849330096
4.696340483 -2.729705129 -0.84917566
4.690501814 -2.745597806 -0.849638968
4.688014132 -2.763487226 -0.850720136
4.678664533 -2.777352614 -0.850565702
4.669273694 -2.791186526 -0.850411266
4.657302457 -2.803460229 -0.849793463
4.646144946 -2.816199088 -0.849330097
4.639169538 -2.831469481 -0.849638968
4.637194956 -2.849827409 -0.850874573
4.633471091 -2.867159918 -0.851801306
4.622975896 -2.88031678 -0.851492434
4.616627987 -2.896061453 -0.851955741
4.209239212 -3.076394978 -0.865634669
4.199781128 -3.089294239 -0.865634668
4.189490656 -3.101577535 -0.865470875
4.184702092 -3.117952453 -0.866453637
4.173537906 -3.129592488 -0.866126049
4.160767412 -3.14000503 -0.865470876
4.155827703 -3.156335238 -0.866453635
4.141422449 -3.165476067 -0.865470876
4.126999707 -3.174557898 -0.864488115
4.126601852 -3.19445095 -0.866453637
4.123785628 -3.212552422 -0.867927719
4.121673834 -3.231275356 -0.869565654
4.107868703 -3.240850079 -0.868746687
4.095588642 -3.251597486 -0.868255306
4.086364285 -3.264762852 -0.868419099
4.079404562 -3.279756806 -0.869074274
4.071623863 -3.294118385 -0.869565655
3.54760109 -3.5414495 -0.88360678
3.549226398 -3.564879074 -0.886731495
3.533424047 -3.57085096 -0.885516334
3.527286016 -3.58658946 -0.886731494
3.514200732 -3.595281531 -0.886210729
3.496977948 -3.599688548 -0.884648313
3.494126571 -3.618901883 -0.886731495
3.49118986 -3.638131709 -0.888814677
3.482730662 -3.651676022 -0.889509071
3.46880096 -3.659484748 -0.888814677
3.454856237 -3.667242272 -0.888120282
3.444262247 -3.678543233 -0.888293852
3.436314942 -3.692697645 -0.889161874
3.430319086 -3.709006711 -0.890550603
3.43158664 -3.733289278 -0.893848946
3.418788442 -3.742345549 -0.893501749
3.405305011 -3.75062918 -0.892980982
3.394442018 -3.761789885 -0.893154551
3.386172525 -3.775852218 -0.894022573
3.378504056 -3.790634184 -0.895064164
3.376000423 -3.811302071 -0.897494484
3.366243827 -3.823859283 -0.898015251
3.357738892 -3.837874754 -0.898883272
3.345302629 -3.84741473 -0.898709645
3.33541479 -3.859895448 -0.899230469
3.321632333 -3.867868728 -0.898709645
3.30783219 -3.875793944 -0.898188878
3.286370649 -3.87465817 -0.89558493
3.280180245 -3.891499498 -0.897147287
1.467438684 -5.161729082 -0.945927967
1.454526108 -5.176635726 -0.94783752
1.438637608 -5.181073795 -0.94783752
1.422214354 -5.183563893 -0.947490324
1.403728186 -5.178397329 -0.945754338
1.389872358 -5.19029 -0.947143126
1.374194057 -5.195481593 -0.947316695
1.360239283 -5.20729589 -0.948705483
1.34105944 -5.199047655 -0.946448732
1.328991494 -5.218407254 -0.949226308
1.313695704 -5.225325135 -0.949747074
1.297658414 -5.229330889 -0.949747074
1.264742615 -5.164415949 -0.9372481
0.93452967 -3.867349421 -0.701330295
0.916037361 -3.842417119 -0.696296026
0.891553459 -3.844127942 -0.695601631
0.879755647 -3.84684505 -0.695601631
0.865350264 -3.837997589 -0.693518449
0.853785049 -3.841595743 -0.693692076
0.83925594 -3.831690986 -0.691435326
0.827496537 -3.83424782 -0.691435326
0.814910115 -3.83291526 -0.690740932
0.803954467 -3.839253033 -0.691435326
0.791376486 -3.837843324 -0.690740932
0.779402465 -3.839288131 -0.690567305
0.766655227 -3.836832582 -0.689699342
0.756590355 -3.84786335 -0.691261699
0.746652111 -3.859835568 -0.692997684
0.731493538 -3.844693567 -0.689872968
0.72005694 -3.848855777 -0.690220108
0.708245445 -3.851046679 -0.690220108
0.696777585 -3.855139621 -0.690567304
0.684774722 -3.856289462 -0.690393734
0.674632606 -3.868074139 -0.69212972
0.664258444 -3.878861691 -0.693692077
0.661986995 -3.938181668 -0.703934242
0.505533196 -5.812188002 -0.968659092
0.487534344 -5.811745954 -0.968331565
0.469701845 -5.813214073 -0.968331564
0.452017815 -5.816594743 -0.968659092
0.434244038 -5.818937774 -0.968822885
0.416319357 -5.819258974 -0.968659093
0.398396771 -5.819524342 -0.968495298
0.380540859 -5.820719502 -0.968495299
0.362926705 -5.825797984 -0.969150474
0.345284952 -5.830823019 -0.969805647
0.327560489 -5.834809462 -0.970297027
0.3098671 -5.839727606 -0.970952202
0.29239286 -5.849518032 -0.972426284
0.274630324 -5.854329284 -0.973081459
0.256668206 -5.855144126 -0.973081458
-0.204301773 -6.270474816 -0.98076853
-0.223573552 -6.270805985 -0.980922908
-0.243002231 -6.275026679 -0.981695263
-0.26217006 -6.272277407 -0.981386274
-0.282297685 -6.291183658 -0.984475344
-0.301076967 -6.279432581 -0.982776373
-0.321246773 -6.296240197 -0.985556571
-0.339654528 -6.27845324 -0.982930866
-0.359309735 -6.284286374 -0.984011977
-0.378587963 -6.283154787 -0.984011978
-0.398487117 -6.291824073 -0.985556571
-0.417657363 -6.288600047 -0.985247582
-0.899937862 -6.701416537 -0.992313159
-0.919819801 -6.693723028 -0.991587174
-0.572693244 -4.074875869 -0.603896808
-0.586036282 -4.078975402 -0.604767989
-0.598978796 -4.080095132 -0.605203639
-0.612227107 -4.083130745 -0.605929625
-0.625499646 -4.086123393 -0.606655611
-0.640170721 -4.097870723 -0.608688485
-0.65741115 -4.125199609 -0.613044513
-0.674349067 -4.149531047 -0.616965007
-0.684165824 -4.129872774 -0.614351343
-0.697821051 -4.13360808 -0.615222584
-0.712008719 -4.140223429 -0.616529415
-0.727608958 -4.154587328 -0.618997824
-0.74781938 -4.19421925 -0.62524153
-0.801385569 -3.746683138 -0.530632441
-0.812666276 -3.743238889 -0.53049529
-0.823720305 -3.738793456 -0.53022093
-0.83518686 -3.736248632 -0.530220929
-0.84686466 -3.734634766 -0.530358081
-0.859206467 -3.735880426 -0.530906802
-0.873138662 -3.743837979 -0.532415871
-0.885532242 -3.744997434 -0.532964592
-0.898402922 -3.74804271 -0.533787731
-0.911300629 -3.751044047 -0.534610813
-0.923751573 -3.752077882 -0.535159591
-0.930703191 -3.730965419 -0.532553023
-0.939232881 -3.716568181 -0.530906801
-0.95726306 -3.739578505 -0.534610813
-2.059575763 -6.899856594 -0.926133755
-0.963759789 -3.717447295 -0.53186715
-2.083600584 -6.90300095 -0.927409414
-2.105637398 -6.899421813 -0.927792135
-2.124162949 -6.884399447 -0.92664403
-2.152066634 -6.899627538 -0.929578068
-2.176802875 -6.904344134 -0.931108895
-3.01345525 -7.925683729 -1.008535748
-3.038112381 -7.917328569 -1.008653767
-2.09526169 -5.410570218 -0.690112895
-2.095586591 -5.362496661 -0.684797949
-2.098550813 -5.321862596 -0.680427915
-2.073385737 -5.21113954 -0.667081599
-2.080115385 -5.181716137 -0.664128846
-2.072519225 -5.117326136 -0.656687981
-2.0713082 -5.069578098 -0.651373035
-2.023698432 -4.370447456 -0.527123761
-2.042563086 -4.375927958 -0.528538119
-2.051746632 -4.360646335 -0.527450156
-2.038704921 -4.298644522 -0.520704698
-2.046738585 -4.281607336 -0.519399176
-2.055981396 -4.267247905 -0.518419991
-2.049523524 -4.220680817 -0.513524067
-2.048917052 -4.186693959 -0.510151339
-2.049440351 -4.155425377 -0.507105063
-2.072797619 -4.170482307 -0.509716164
-2.051573486 -3.850131418 -0.442446577
-2.065258148 -3.847325628 -0.44285019
-2.067113857 -3.822593481 -0.440731304
-2.061222352 -3.783907451 -0.436997996
-2.048412846 -3.733082858 -0.431852089
-2.0569687 -3.721556366 -0.431246685
-2.074183888 -3.725659437 -0.432457494
-2.05251488 -3.660269727 -0.425596284
-2.061288321 -3.649624054 -0.42509179
-2.208475288 -3.572992331 -0.384560924
-2.078378727 -3.653660231 -0.426302599
-2.217848123 -3.563663519 -0.384287427
-2.080675724 -3.631728119 -0.424486386
-2.217137789 -3.538277692 -0.382281642
-2.236484445 -3.544934609 -0.383740377
-2.241476196 -3.52880991 -0.382737498
-2.253901634 -3.524433523 -0.383011024
-2.264164661 -3.516664668 -0.382919858
-2.287876839 -3.506041689 -0.38328452
-2.291514365 -3.488186258 -0.382099311
-2.284626955 -3.454559663 -0.379181813
4.635019685 -1.378450736 -0.614038482
14.98973848 9.697547261 0.25762364
