-5.185673655 9.104475702 -0.860505214
-5.15035839 9.107329686 -0.859277419
-5.118001643 9.115267022 -0.858540766
-5.090012453 9.130925583 -0.858540765
-4.57336144 9.1643177 -0.742966661
-4.528847232 9.145235396 -0.740289697
-4.480534688 9.117910793 -0.736961612
-4.09054343 9.112185091 -0.644683596
-4.045926841 9.087314659 -0.642042753
-4.03173351 9.130722875 -0.644232688
-3.999698931 9.133907351 -0.643588599
-3.534261492 9.101106585 -0.536791677
-2.460293543 8.106394761 -0.304714551
-3.509191927 9.119361127 -0.537230844
-2.429378679 8.093804026 -0.303959688
-3.466256739 9.090899338 -0.534925157
-2.404535788 8.101218915 -0.303959688
-3.44046721 9.107095619 -0.535254533
-2.382203133 8.117188661 -0.304283192
-2.538511552 9.391684041 -0.349934658
-2.495507251 9.346323366 -0.347957631
-2.478543872 9.398386652 -0.349611153
-2.121190813 9.359917713 -0.267740649
-2.086580632 9.340041338 -0.266987694
-2.065224209 9.379590741 -0.267935855
-1.651624374 9.367932696 -0.173679305
-1.621852706 9.367044786 -0.173569781
-1.592437237 9.368034144 -0.173496751
-1.186748099 9.37077163 -0.084738854
-1.159709572 9.388262122 -0.084864449
-1.130542734 9.388797685 -0.084837537
-0.726975184 9.39090139 0.006411309
-0.697716196 9.38710433 0.006407226
-0.668842598 9.388202935 0.006406545
-0.342173117 9.415430333 0.081728099
-0.313551402 9.424430363 0.081797494
-0.284424883 9.418351351 0.081736779
0.115522502 9.430753764 0.170389937
0.144470412 9.431354245 0.170407997
0.173331194 9.426868284 0.170335742
0.544630495 9.39665015 0.259624601
0.572908297 9.385955312 0.259376467
0.601637391 9.383155445 0.25934887
0.630354655 9.380268295 0.259321303
1.173814862 9.840392704 0.368411672
1.2151687 9.927999945 0.371829432
1.24574619 9.925217428 0.371866596
2.380916609 13.79740656 0.520501804
2.426002455 13.80578528 0.521096182
1.4339557 4.652332378 0.538498265
1.435212285 4.606157828 0.533660811
1.432317581 4.547695095 0.527394097
1.439897557 5.042969711 0.527816688
1.442661455 4.994557414 0.523210441
1.442351572 4.936625459 0.517602778
1.406610606 3.503188323 0.557650487
1.411780266 3.48510313 0.555458467
1.412735687 3.456946047 0.551658969
1.398826956 3.393146916 0.542160194
1.420314613 3.766007418 0.554854716
1.419174954 3.728302352 0.549938465
1.420304113 3.697113379 0.545978153
1.42089733 3.665029258 0.541881287
1.411311675 3.997522529 0.543222147
1.409913143 3.954867571 0.538011033
1.407930361 3.911326061 0.532672899
1.412766925 4.285529442 0.535035017
1.413669937 4.244430587 0.530442955
1.414967503 4.20524947 0.526086391
1.365899657 2.703849368 0.562207858
1.348765328 2.649701481 0.55180673
1.385271021 2.895643452 0.563342508
1.392436996 2.88783097 0.562651035
1.384931055 2.849881964 0.556082483
1.39713364 2.852696156 0.557465313
1.413631904 3.125423756 0.568243608
1.405173478 3.056633831 0.557293818
1.421057645 3.017687918 0.552554356
1.41668819 3.315414625 0.562335875
1.41551336 3.284738515 0.557866778
1.415345093 3.256819566 0.553860033
1.348557074 2.591799919 0.56616493
1.351944129 2.578955411 0.56426247
1.360308454 2.575663659 0.564452728
1.368203986 2.571478106 0.564452727
1.376086814 2.567268506 0.564452728
1.384423053 2.563898409 0.564642985
1.423142071 2.578552566 0.570730766
1.448529851 2.586903525 0.574535628
1.455495021 2.580737149 0.574155171
1.585630003 2.566843419 0.614275149
1.470679157 2.589064016 0.577008803
1.593497552 2.561966684 0.614275149
1.481540382 2.58965278 0.578150234
1.602390196 2.558726674 0.614674142
1.492419099 2.590199119 0.579291722
1.714760827 2.577145663 0.630235543
1.752715518 2.582334587 0.635422639
2.045382864 2.581518844 0.703983477
2.056951248 2.579819273 0.705237619
2.068528134 2.57807309 0.70649176
2.086257073 2.583888484 0.709836115
2.095407866 2.578993756 0.710254124
2.108262168 2.578609551 0.711926331
2.118648522 2.575150097 0.712762406
2.132151644 2.575417478 0.714643589
2.147553936 2.577880088 0.717151812
2.161734981 2.57877377 0.719242029
2.172788862 2.575866926 0.720287136
2.190806404 2.581117679 0.723631492
2.202525582 2.578845949 0.724885634
2.209789615 2.571334826 0.7246766
2.227262683 2.575638864 0.727811925
2.239005543 2.573219832 0.729066064
2.256552182 2.577375039 0.732201387
2.274791856 2.5821805 0.735545688
2.293082035 2.586898068 0.738890044
2.301658528 2.58058051 0.739099075
2.316096507 2.580785206 0.741189293
2.32924628 2.579473634 0.742861441
2.356219769 2.593305053 0.748923054
2.36482475 2.586785846 0.749132088
2.376059946 2.583117234 0.750177196
3.01551047 2.609751567 0.894126933
3.031640361 2.607486839 0.896533468
3.047043163 2.604513716 0.898721198
3.066918081 2.605261051 0.902221541
3.088317539 2.607169666 0.9061595
3.108262268 2.607717083 0.909659843
3.12898887 2.60879134 0.913378994
3.161021629 2.619101379 0.920379739
3.184107599 2.621796254 0.924755255
3.208750072 2.625609715 0.92956827
3.231174649 2.627449705 0.933724921
3.257435262 2.632243373 0.938975494
3.276907976 2.631401693 0.942257087
3.299456888 2.632899762 0.946413796
3.301402501 2.617914434 0.944663624
3.323980746 2.619248281 0.948820275
3.351975989 2.624679014 0.954508405
3.369253973 2.621573539 0.957133691
3.38886025 2.620177415 0.960415285
3.413132039 2.622252315 0.96500955
3.439775274 2.625979107 0.970260065
3.459476616 2.62425935 0.973541658
3.497121724 2.635952184 0.981855075
3.527060811 2.641589064 0.987980763
3.546890388 2.639493895 0.991262356
3.562817442 2.634401199 0.993450085
3.5803194 2.630390794 0.996075314
3.594677495 2.623996773 0.997825544
3.615349307 2.622122317 1.001325887
3.630501654 2.616152399 1.003294866
3.666279518 2.624882982 1.010951917
3.68703742 2.622672381 1.014452377
3.710206851 2.622048306 1.01860897
3.742989967 2.628034946 1.025391021
3.769442054 2.629379169 1.030422729
3.781501228 2.620581379 1.03151671
3.803990195 2.618927399 1.035454552
3.838585531 2.625423338 1.042674104
3.874870715 2.632827963 1.050331157
3.883738669 2.621473628 1.050549907
3.915265871 2.625305425 1.056894343
3.945228765 2.627886762 1.062801282
3.971988935 2.628154775 1.067832988
3.993079707 2.624531603 1.071333446
4.020722416 2.625071265 1.07658402
4.064779492 2.636084689 1.086210053
4.083511474 2.630471072 1.089054029
4.105535266 2.626870935 1.092773238
4.125928008 2.622113772 1.096054831
4.160357612 2.626110414 1.103055518
4.192370335 2.628365197 1.109399956
4.213667317 2.623743281 1.112900415
4.239955087 2.622094701 1.117713374
4.271260361 2.623373427 1.123839059
4.326771535 2.639220256 1.136309068
4.366562568 2.645145294 1.144622485
4.378002035 2.633748276 1.145497601
4.396951443 2.626810148 1.148341695
4.424291505 2.624759118 1.153373403
4.472677965 2.634947286 1.163874547
4.498428236 2.631559658 1.168468756
4.545293099 2.640292011 1.178532402
4.565205453 2.63316021 1.181595245
4.593584291 2.630780539 1.186845819
4.631321775 2.633556881 1.19450287
4.662321322 2.632288649 1.200409691
4.692505719 2.63037761 1.20609788
4.72783782 2.63115303 1.213098567
4.765780857 2.633152202 1.220755619
4.799502233 2.632596669 1.227318804
4.832408466 2.631392116 1.233663243
4.873935697 2.634650458 1.242195408
4.906930187 2.633065026 1.248539846
4.943405843 2.633136548 1.255759399
4.977339745 2.631640636 1.262322587
5.029454763 2.639483736 1.273480097
5.06608714 2.638917032 1.280699531
5.095829012 2.634565353 1.286168854
5.14035072 2.637628891 1.295357387
5.188416555 2.642215117 1.305420918
5.228720237 2.642570031 1.313515584
5.269947346 2.64313944 1.321829
5.294629438 2.63522009 1.325985711
5.33593483 2.635383746 1.33429901
5.371157491 2.632312674 1.341081063
5.437124513 2.643985769 1.355520052
5.495303638 2.651462112 1.367990177
5.516614003 2.640910313 1.371271769
5.559065231 2.640299735 1.379803935
5.612156893 2.644444531 1.390961331
5.646762349 2.639610594 1.397524634
5.682275998 2.634999684 1.404306571
5.7373169 2.639166734 1.415901581
5.787997899 2.640995239 1.42640261
5.8351878 2.640928404 1.436028642
5.879760641 2.639397538 1.444998423
5.948446966 2.648333805 1.459875027
5.999390481 2.648990125 1.470376173
6.036985727 2.643487927 1.477595608
6.090714586 2.644775495 1.488753121
6.13285614 2.640741387 1.497066536
6.175927835 2.636856602 1.505598703
6.24329422 2.643002865 1.52003769
6.291861615 2.640830047 1.529882471
6.361194632 2.647006227 1.544759075
6.394542973 2.637896972 1.550884764
6.473053358 2.647074946 1.567949096
6.544445363 2.652863366 1.5832632
6.567945598 2.63895726 1.586982409
6.636748549 2.64298265 1.601640146
6.707452975 2.647326842 1.616735499
6.752801438 2.641309625 1.625705282
6.815462277 2.64173904 1.638831655
6.89822881 2.649505805 1.656771104
6.949187299 2.644641886 1.667053383
6.993788931 2.637080272 1.675804415
44.33135289 10.61708912 8.833580277
9.444351439 -5.289043565 2.313655905
9.451929532 -5.331445956 2.319508603
9.478892259 -5.385054698 2.330168773
9.447897578 -5.405853917 2.326615384
9.396528846 -5.414795356 2.318045428
9.368877284 -5.437217192 2.315328173
9.348774296 -5.46396082 2.314492038
9.270444961 -5.456406245 2.299233487
10.39675969 -9.2771403 2.586046735
10.35507976 -9.297169826 2.582762043
7.709600976 -5.992568018 1.988064875
7.701985181 -6.02464496 1.990857949
10.21708032 -9.287124664 2.562507195
7.685005867 -6.049458144 1.991257061
10.18200958 -9.31245464 2.560864967
7.675627473 -6.080308463 1.993651024
7.66766446 -6.112379394 1.996444097
8.443374035 -9.283967333 2.202376958
8.40362404 -9.297406279 2.19943845
8.361896102 -9.30848973 2.195981379
8.254583955 -9.245931485 2.175238486
8.220295577 -9.264581553 2.173682568
7.047438332 -9.289316599 1.931570575
7.004653363 -9.291987694 1.927648351
6.958961002 -9.290535261 1.922908829
6.889782859 -9.25723313 1.911632226
5.941318565 -10.08385458 1.728921155
5.908855166 -10.0994732 1.728482703
5.875855077 -10.11413266 1.727898221
5.844303366 -10.13125478 1.72775207
6.024405775 -9.29912984 1.728154149
5.977669105 -9.289318798 1.722914543
5.932113832 -9.280972824 1.717983092
5.88878471 -9.275772289 1.713668192
5.852921225 -9.282094268 1.711510623
4.440677174 -9.282137028 1.418478036
4.404957816 -9.280503726 1.416156436
4.371822561 -9.284115945 1.41465428
4.337868212 -9.285816361 1.412878896
4.014804114 -9.745215419 1.350556393
3.000392093 -9.940736509 1.148569147
2.966184629 -9.9375132 1.147139828
2.930055441 -9.927501074 1.144941013
2.89540818 -9.922131828 1.143291872
3.52564597 -9.929861151 1.249396208
3.492200676 -9.932199904 1.248336556
3.459426997 -9.936302369 1.247512343
3.42860285 -9.94592984 1.247394564
2.339924379 -9.941751113 1.027895665
2.321336335 -10.00025113 1.033202863
1.874683897 -10.02484457 0.930660263
1.843019047 -10.02565175 0.930205897
1.811012796 -10.02439847 0.929569737
0.723149228 -9.259568224 0.685147331
0.694215666 -9.254781033 0.684632346
0.666534623 -9.2668152 0.685367988
0.639676701 -9.291699626 0.687060103
1.364852371 -10.03882593 0.82848444
1.333391044 -10.03802574 0.828076922
1.300665448 -10.02724293 0.826854371
1.268644442 -10.02129855 0.826039337
0.263051596 -9.217277895 0.591772343
0.234924603 -9.224027049 0.592156614
0.206579881 -9.222709526 0.592028524
0.178014027 -9.209330386 0.591131891
-0.704650107 -12.96489602 0.482683581
-0.744708992 -12.96766159 0.482869339
-0.784731123 -12.96930609 0.483017933
-1.344941836 -12.89612629 0.357645572
-1.383859796 -12.88597517 0.357480139
-1.424155489 -12.8886247 0.357673169
-1.993077098 -12.89272626 0.235688316
-2.035737629 -12.90630415 0.236049579
-2.591996239 -12.99757067 0.114967553
-2.636427148 -13.01209904 0.115167057
-2.677141628 -13.00786715 0.115201754
-3.856252985 -13.3069489 -0.124291438
-3.891715601 -13.2768233 -0.124120984
-6.981898568 -17.00996396 -0.661371161
-7.03214019 -16.98384644 -0.661191394
-4.674062967 -13.84591642 -0.266816971
-5.973999173 -13.59470227 -0.534122159
-5.976813282 -13.48859711 -0.530671348
-5.308308484 -13.47015124 -0.403911633
-5.360319977 -13.48073945 -0.404720348
-6.81840518 -13.74612869 -0.694900837
-6.855185995 -13.71442271 -0.694357958
-6.177516526 -10.07623868 -0.649826403
-6.215219674 -10.06828453 -0.650540109
-6.2376457 -10.03559994 -0.649661715
-6.380575454 -9.09127178 -0.716887649
-6.4003759 -9.060243256 -0.715985891
-6.420624904 -9.029992178 -0.715148565
-6.439586309 -8.998078086 -0.714182374
0.987568922 4.799564142 0.445030334
