-0.187385847 13.48391778 3.023448626
-0.007164188 7.193474419 2.198717746
0.095294384 7.18167701 2.110599745
0.933488374 13.52966419 2.003362396
0.517265371 13.54200854 2.378345845
0.098266389 13.53299867 2.755360236
-0.324627347 13.49108023 3.137898513
0.265541709 13.5640237 2.628976127
0.815044346 13.52069102 2.112650718
2.162108152 13.78779556 0.895664121
2.325539352 10.25331914 0.39084999
1.404398218 9.929928583 1.189110639
1.367180866 5.088708379 0.726377631
1.383306222 5.086401671 0.726650797
1.429744006 5.068135773 0.674769837
1.43494133 5.027480791 0.669940072
1.433573954 4.964924591 0.662186999
1.436563821 4.918609858 0.656594652
1.432820186 4.850445407 0.648078996
3.126560057 9.264635754 -0.44281834
1.432078881 4.793755476 0.641088505
1.424980064 4.717176581 0.631428976
1.429014611 4.678632033 0.626853425
1.43458212 4.645793705 0.623040456
1.437301772 4.604444218 0.618083556
1.42484306 4.467962977 0.600925165
1.417955292 3.90419912 0.572607899
1.426069213 4.424863689 0.59571411
1.433801764 4.402548205 0.593299227
1.3849203 3.330379524 0.532807569
1.423663234 3.810249801 0.560726964
1.387860958 3.308781873 0.530031006
1.420314613 3.766007418 0.554854716
1.39916195 3.307241756 0.530469399
1.419174954 3.728302352 0.549938465
1.392607603 3.263808012 0.524185637
1.420304113 3.697113379 0.545978153
1.42089733 3.665029258 0.541881287
3.234247007 9.283921822 -0.540524716
1.401974727 3.230699184 0.520239989
1.413727901 3.613603066 0.534916546
1.398792199 3.196475348 0.515417556
1.41171264 3.576077264 0.530000295
1.397409813 3.166826852 0.511325756
1.411679983 3.544119838 0.525903427
1.400684548 3.14806344 0.508987586
1.399997578 3.095243506 0.501826982
1.403740846 3.078332379 0.499781111
1.398302843 3.041653327 0.494520228
1.394317034 3.008627165 0.489843945
1.39265413 2.981032014 0.486044447
1.392942436 2.957950439 0.482975583
1.390981379 2.930426961 0.479176085
1.392280106 2.910082572 0.476545671
1.389170478 2.880847385 0.472453902
1.396859423 2.529588097 0.426859836
1.448017612 3.120253484 0.440780151
1.457163366 3.114897792 0.440653044
1.333465869 2.56156741 0.50681811
1.337788985 2.774323959 0.510226176
1.45310498 2.962871137 0.422859151
3.149831706 5.200330918 -0.892268788
3.161134668 5.183040776 -0.890961956
1.434449073 2.558587087 0.404362524
2.120844906 3.373076687 -0.143316855
1.629989969 2.581112518 0.225194455
2.13759777 3.376686879 -0.143748199
1.635225518 2.57189152 0.224826605
1.63934471 2.560982993 0.224311621
1.647971148 2.539999899 0.22335522
1.473162609 2.570570034 0.379645396
2.205014152 4.175731462 -0.131736991
1.91386763 2.811388651 0.002314987
2.213589402 4.161004245 -0.131486011
1.378485271 2.586119046 0.457080897
1.478439807 2.543474022 0.376976329
2.162762004 3.413355643 -0.182999608
1.3906198 2.589712172 0.458467867
1.47320777 2.516669973 0.373671729
2.172686608 3.40586227 -0.182954368
2.189063579 3.408426582 -0.183452007
3.092939799 4.734585416 -0.88408175
2.03886943 3.375346382 -0.071998229
2.051813092 3.37334661 -0.072089506
1.789471808 2.698320932 0.089308002
2.060063972 3.363625193 -0.07201649
1.812727432 2.715265303 0.090052464
1.5084728 2.610367206 0.357474985
1.738540908 2.838496756 0.150452336
1.612756443 2.600251566 0.25021615
2.07475972 3.335904806 -0.109594909
2.189816565 2.786114053 -0.257061104
1.622838025 2.598673112 0.250542187
2.090820113 3.338843197 -0.109901664
2.164323719 2.73635823 -0.253081838
2.951472122 3.693802245 -0.87264022
2.954163612 3.674000665 -0.870099273
2.96294709 3.661862225 -0.869373289
3.03640726 4.319223581 -0.876608659
3.052493118 4.313914345 -0.877427627
2.354089905 2.809149237 -0.40113629
2.267717513 2.843184812 -0.332957933
2.910389124 3.377698726 -0.866343194
2.274559678 2.833884311 -0.332684408
2.918808758 3.366528817 -0.865770989
2.285120387 2.829216899 -0.332957934
2.93105949 3.359777378 -0.866343195
2.986310976 3.957199605 -0.873885324
2.996054772 3.944881799 -0.873190987
2.99678075 3.92080534 -0.869892646
2.150472814 2.800175022 -0.227883962
2.86551067 3.066942619 -0.857535566
2.880946161 3.06456158 -0.859337116
2.806865288 2.573722707 -0.850330879
2.892354283 3.057843997 -0.859937633
2.804649182 2.555895777 -0.847280013
2.838185265 2.8087316 -0.857197313
2.852365353 2.805495881 -0.858876436
2.769151551 2.343627375 -0.845479163
2.780055336 2.338255034 -0.846614035
2.782732589 2.32596753 -0.84525219
2.74584943 2.116290201 -0.843949462
2.747700853 2.104311616 -0.842530218
2.741772575 2.086457563 -0.838745738
2.745060743 2.075692048 -0.837799575
2.68693962 1.707182616 -0.838538522
2.682351121 1.692738141 -0.835481934
2.689591999 1.662893536 -0.83293473
2.682320201 1.64704409 -0.829113896
2.702484307 1.856521879 -0.833423323
2.704965082 1.846036715 -0.832437879
2.725055624 1.847518915 -0.836872288
2.702508615 1.808128276 -0.826525337
2.672859154 1.510674479 -0.839747179
2.716114955 1.805193202 -0.828988916
2.668228208 1.497274817 -0.836845089
2.693101513 1.76617047 -0.818641908
2.658795835 1.470603851 -0.831041028
2.656531185 1.458725739 -0.828930428
2.64574951 1.442258606 -0.824181606
2.665431773 1.442398096 -0.828930429
2.655398981 1.426453922 -0.824445474
2.622149403 1.259372372 -0.826371321
2.613209923 1.206102983 -0.817626664
2.621270976 1.200082203 -0.818992982
2.634574897 1.196409815 -0.821998964
2.636478878 1.187531287 -0.821452447
2.623613956 1.089136307 -0.838973072
2.615413522 1.076337228 -0.835290875
2.620479473 1.069032781 -0.83585736
2.620190366 1.059550058 -0.834724392
2.619867942 1.05007917 -0.833591427
2.615946894 1.039204021 -0.831325439
2.615553316 1.029768226 -0.830192473
2.626741226 1.02487635 -0.832741645
2.611088517 1.009549867 -0.82679352
2.627606892 1.006681002 -0.831042196
2.621716853 0.995211313 -0.828209726
2.327023879 -1.521482342 -0.821128575
2.32474827 -1.530196229 -0.821978355
2.320842293 -1.537851088 -0.822261598
2.31850695 -1.546560631 -0.823111324
2.316935917 -1.555804976 -0.824244288
2.319302776 -1.567739676 -0.826793517
2.320825322 -1.579163966 -0.829059449
2.320717248 -1.589528417 -0.830758957
2.301617159 -1.586842116 -0.825660552
2.314859895 -1.606472094 -0.832175164
2.303986028 -1.742475161 -0.820632646
2.317782607 -1.619058407 -0.835007635
2.287851134 -1.763606636 -0.820632646
2.272548913 -1.762952344 -0.81708009
2.295184447 -1.791818091 -0.827191124
2.270766049 -1.783994553 -0.82035936
2.31131206 -1.827344469 -0.837028871
2.296661897 -1.827240104 -0.83374966
2.28653965 -1.830670305 -0.832109997
2.282153927 -1.997125019 -0.829458105
2.268052957 -1.997105419 -0.826556018
2.259749438 -2.002135239 -0.825764586
2.285996181 -2.037942931 -0.83763658
2.275424955 -2.041082228 -0.836053659
2.277744844 -2.055808861 -0.839219501
2.257859915 -2.050466331 -0.834206871
2.265799917 -2.070396848 -0.839483313
2.269541352 -2.248847686 -0.841595168
2.260842056 -2.091465627 -0.842385399
2.2673061 -2.274373339 -0.845925443
2.268913718 -2.304089967 -0.851783985
2.244248111 -2.293071311 -0.845161252
2.23922534 -2.302025474 -0.845925444
2.25097584 -2.450167031 -0.8457411
2.226457248 -2.438452926 -0.839335866
2.228735194 -2.456037906 -0.843031176
2.222222257 -2.657047149 -0.843239811
2.225239072 -2.677302248 -0.847497428
2.224620177 -2.481935712 -0.847219235
2.197233359 -2.87075856 -0.842528494
2.198452056 -2.661642789 -0.840401436
2.239558515 -2.514078003 -0.855841703
2.185468 -2.873610227 -0.841393623
2.167603803 -3.100227462 -0.84466492
2.170769969 -2.872531706 -0.839123878
2.158082208 -3.106863109 -0.84466492
2.175981677 -2.897868912 -0.844571265
2.147431764 -3.111862674 -0.84422909
2.15494783 -3.305734333 -0.847122519
2.143732984 -3.310688631 -0.846702724
2.052518797 -4.132412187 -0.851586489
2.090533055 -3.848996265 -0.85108393
2.120950493 -3.586755477 -0.851330246
2.130392434 -3.312316003 -0.845443396
2.044613378 -4.148392491 -0.853583004
2.07731713 -3.852799573 -0.850511724
2.101502758 -3.57888264 -0.847927356
2.10186378 -3.604780125 -0.852531279
1.910517618 -5.695767272 -0.881668996
1.95904598 -5.251412675 -0.876204699
2.003834643 -4.825984662 -0.867600134
1.938473378 -5.245350215 -0.874196796
1.989770255 -4.833934137 -0.867927721
2.037822508 -4.475046491 -0.866767873
1.98089367 -4.854629803 -0.870548416
2.025299621 -4.483970226 -0.867288698
1.670597278 -6.699621332 -0.755707275
1.650035329 -6.704715056 -0.755707275
1.740876591 -6.399695447 -0.78885234
1.71891508 -6.396375643 -0.787789351
1.79758262 -6.028898081 -0.809155169
1.777114375 -6.027725491 -0.808262173
1.853483776 -5.709384233 -0.831342464
1.836867771 -5.717872991 -0.831754033
1.305086063 -8.462456439 -0.621128509
1.424636488 -7.955233693 -0.66373407
1.400050792 -7.95858581 -0.663652234
1.503652346 -7.493664986 -0.69974045
1.593815622 -7.055109272 -0.733543145
0.544350294 -9.238975461 0.006299678
0.933616662 -10.14468845 -0.461367097
1.090914048 -9.638811203 -0.533333117
1.067455302 -9.697692532 -0.536407346
0.628595789 -9.273345973 -0.083384257
1.192801002 -9.088989868 -0.591673847
0.178510654 -9.231895969 0.343261462
0.737417854 -9.267157875 -0.169736204
0.709135634 -9.271369747 -0.169772712
0.814070145 -9.240601885 -0.258789015
0.343495256 -9.320150334 0.168493302
0.452442906 -9.302653511 0.080791293
-0.485468103 -19.9272848 -0.178825367
0.004073812 -9.221222165 0.504246144
-0.780189352 -12.8928443 0.828929628
0.081780561 -9.273171553 0.419162383
-1.444953649 -12.86615061 1.432110826
-0.626393567 -12.86651614 0.704415708
-1.294867427 -12.88168226 1.302969193
-0.51903573 -12.88238468 0.582754483
-2.032746224 -13.02728123 1.947684984
-1.866729621 -12.98143823 1.80795517
-1.02912975 -12.89681684 1.057998739
-1.706059899 -12.97231497 1.676566022
-5.695052763 -22.59745915 4.325040856
-3.54386549 -12.42434869 3.408756439
-5.18654875 -22.62479173 3.845163868
-3.621794659 -13.03693121 3.423282915
-3.686406459 -13.60514759 3.421316026
-3.652642205 -11.61336294 3.577531563
-6.19464083 -22.55493256 4.762178531
-3.484278431 -11.61393519 3.433180332
-3.431031325 -11.85933337 3.3685963
0.7639279 -9.176406084 -0.192891933
1.4650232 2.412593964 0.352471336
