17.01591967 14.98343386 6.929965408
18.47482851 15.58713655 6.377451363
20.38940734 16.57977481 5.89200584
17.23446184 14.68283812 6.410582781
17.92799131 12.34424146 3.215404491
17.91773931 12.91378417 3.876155968
18.11318507 13.74923136 4.629906766
16.12636203 12.33558424 4.721003122
16.8221011 10.39007361 1.989901995
17.49021343 10.28725121 1.302219416
16.48778198 7.607896827 -0.822344568
13.68653833 5.509160068 -0.811171348
9.386603686 2.313286396 -0.793959907
8.597333851 1.697689109 -0.802308242
7.454400237 0.818652682 -0.820768188
7.986867383 1.22030794 -0.819409059
6.933521252 0.416822831 -0.826174861
6.492155426 0.06871769 -0.835051182
5.632952401 -0.546277155 -0.830557715
5.645032892 -0.564935605 -0.832590591
6.110362865 -0.200339508 -0.846707229
6.108729598 -0.21904939 -0.84657002
5.265146168 -0.824252788 -0.833112626
4.92280158 -1.085174514 -0.836971272
4.92233732 -1.100918282 -0.837462653
4.917012587 -1.115578028 -0.837135066
4.249155575 -1.605312305 -0.838337209
4.231883232 -1.628528875 -0.836885181
4.536552775 -1.387055395 -0.836214889
4.052990987 -1.764243995 -0.858904297
4.050256063 -1.777853732 -0.859476561
4.041191919 -1.788682153 -0.858713563
4.026721231 -1.797071284 -0.856806155
4.00955148 -1.804180074 -0.854326542
3.94229303 -1.847145532 -0.845933968
3.887905745 -1.894927567 -0.84040248
3.589837057 -2.106065826 -0.850329422
3.584202382 -2.117567927 -0.850529576
3.565900762 -2.121540763 -0.847727145
3.562737049 -2.134484809 -0.848527872
3.550299328 -2.141862483 -0.847126628
2.64300008 -2.430363028 -0.392976475
2.634801564 -2.437785141 -0.392867695
2.615668769 -2.435019868 -0.391126941
2.605284094 -2.440314823 -0.390691739
2.590550746 -2.441478456 -0.389603775
3.183136561 -2.417262524 -0.858036846
2.510691876 -2.392210618 -0.251562485
3.181920301 -2.431766434 -0.859716027
2.817436169 -2.700850882 -0.871469308
2.49398115 -2.390929181 -0.250621924
3.179869721 -2.445689438 -0.861185222
2.429486978 -2.340991683 -0.121353825
3.153795273 -2.441070993 -0.856147855
2.805713736 -2.722845293 -0.872994769
3.153233415 -2.456142481 -0.858036846
2.40641174 -2.361852934 -0.121281927
2.671917877 -2.443098864 -0.430626667
3.138870964 -2.476049589 -0.858246771
2.655640692 -2.443216757 -0.429209358
2.645946325 -2.449328963 -0.428855037
2.366196353 -2.36553048 -0.120347326
2.632606374 -2.452020814 -0.427910156
2.618550284 -2.453974764 -0.426847166
2.414633388 -2.357344945 -0.152823892
2.689809197 -2.461300979 -0.468934956
2.41291282 -2.38475637 -0.15363824
2.677137854 -2.464839023 -0.46804199
2.657405303 -2.845110375 -0.869290102
2.391417846 -2.37805982 -0.152733412
2.648000088 -2.852534549 -0.869072187
2.395409867 -2.396690753 -0.153457266
2.211403023 -2.392541473 0.00221765
2.571344227 -2.410104458 -0.322655569
2.199993374 -2.394896103 0.002213566
2.544227341 -2.414183622 -0.32110564
2.594791742 -2.882661842 -0.866021265
2.743367432 -2.451149749 -0.509505932
2.582681998 -2.886971937 -0.864931632
2.726995003 -2.451607803 -0.507859711
2.573164308 -2.894152663 -0.864713718
2.443745334 -2.373766281 -0.187311629
2.716522332 -2.457304606 -0.50731099
2.426286464 -2.385915938 -0.187092046
2.084700377 -2.382519042 0.117689644
2.414696558 -2.389134805 -0.186762656
2.072135369 -2.382870968 0.117392448
2.242822003 -2.398653335 -0.029460344
2.060241015 -2.383924425 0.117132407
2.227283986 -2.39673286 -0.029352693
2.507477949 -2.37951035 -0.223117587
2.574794437 -2.445100117 -0.360112178
2.556490923 -2.442678386 -0.358598667
2.481166059 -2.398326284 -0.222731125
2.11391114 -2.388748486 0.08798451
2.280444241 -2.396957754 -0.060406228
2.273079552 -2.403942917 -0.060406228
2.258162002 -2.402890599 -0.06020542
1.936557509 -2.398398239 0.227401511
1.926693783 -2.401216826 0.227107242
2.346479084 -2.380688065 -0.093253275
2.337765181 -2.386447706 -0.093197507
2.141442215 -2.391941136 0.058000857
2.311878506 -2.589672247 -0.31782348
1.978463537 -2.391256907 0.199178795
2.129441374 -2.39327102 0.057874413
1.825782754 -2.391337038 0.332795899
1.967315315 -2.392690372 0.198794524
1.813631785 -2.390592484 0.331916344
1.957439485 -2.395623614 0.198538343
1.80269915 -2.39138327 0.331256699
1.791778799 -2.392129404 0.330597053
2.019921758 -2.383562095 0.170848532
1.963382226 -2.698081817 -0.120023822
2.010669988 -2.387456716 0.170684724
2.169223758 -2.395726569 0.028034942
1.941628295 -2.685466001 -0.119197061
1.859162531 -2.392188698 0.304914003
1.999490792 -2.389019731 0.170357107
1.932797245 -2.690598489 -0.119161112
1.847557669 -2.392368902 0.304213053
2.264784031 -2.53713065 -0.219510611
1.702595972 -2.393299154 0.43387429
1.838997797 -2.396447167 0.304012781
2.264936836 -2.553024946 -0.220283535
1.685538702 -2.384777954 0.431389998
1.826810527 -2.395748399 0.303211695
2.261053204 -2.564452801 -0.220669996
2.317757572 -2.630616573 -0.355571674
1.995805281 -2.69253561 -0.151783359
1.978649115 -2.686580428 -0.151104745
2.03592883 -2.391563512 0.141963427
1.738180374 -2.382431009 0.406547512
2.021484749 -2.389409011 0.141466742
1.727374507 -2.382939889 0.405728155
1.873651589 -2.396951816 0.277625934
1.863234546 -2.39875653 0.277171539
1.584784265 -2.395119717 0.533011717
1.850998749 -2.398154806 0.276444541
1.577968668 -2.400792219 0.533194225
1.567370719 -2.400682327 0.532099348
1.558393226 -2.403004751 0.531551937
2.034299833 -2.695380594 -0.185664693
2.024223809 -2.699212539 -0.185500005
2.011757054 -2.699805503 -0.185115719
1.774777774 -2.387231433 0.38117059
1.999305454 -2.700347378 -0.184731433
1.7656775 -2.390271533 0.380789298
1.618760278 -2.382000518 0.505435225
1.75598834 -2.392479002 0.380280901
1.904374229 -2.408913071 0.251112693
1.614751401 -2.391853603 0.506472404
1.742795724 -2.389840795 0.379009921
1.892049174 -2.408474204 0.250460677
1.601919666 -2.38861604 0.50474381
1.879131566 -2.40719697 0.249727152
1.594584016 -2.393519479 0.504743811
1.433859267 -2.416911737 0.630067447
1.426932918 -2.42214014 0.630286198
1.41358261 -2.41639961 0.627660912
1.645466779 -2.389748888 0.480645522
1.409103352 -2.425787457 0.628973583
1.63422834 -2.389085958 0.479501472
1.773537727 -2.403577761 0.354178104
1.398241736 -2.424182531 0.627442162
1.627445535 -2.394904397 0.479664908
1.760870925 -2.401799711 0.353118393
1.619538418 -2.399068409 0.479501472
1.750570657 -2.40317731 0.352529677
1.947031537 -2.682605621 -0.092472446
1.928852659 -2.674783119 -0.091998373
1.91889098 -2.678250409 -0.091914711
1.846616355 -3.300676307 -0.698039559
1.472746552 -2.413243486 0.604280403
1.912404245 -2.686568038 -0.091998373
1.459253545 -2.40771484 0.601772121
1.905884586 -2.694870848 -0.092082036
1.44984274 -2.408829003 0.600936046
1.894159756 -2.695797898 -0.091914711
1.312971162 -2.412904293 0.724762562
1.306481343 -2.418622635 0.725272779
1.303624236 -2.431140687 0.727823856
1.292070625 -2.427447 0.725527886
1.643246772 -2.405005058 0.454306985
1.284617262 -2.431399649 0.725527887
1.633086046 -2.405947645 0.453536447
1.275804592 -2.43276023 0.724762561
1.749489203 -3.365365682 -0.700036075
1.495424282 -2.416396069 0.578563799
1.481333468 -2.410119971 0.575970223
1.47393233 -2.414653281 0.575970223
1.345612757 -2.415347138 0.699520165
1.465501468 -2.417488086 0.57557123
1.52402063 -2.41291509 0.553038082
1.382995092 -2.393958131 0.671054419
1.512958762 -2.411757699 0.551706393
1.167480507 -2.442696973 0.827515276
1.15670307 -2.43935448 0.825176866
1.147992472 -2.440295678 0.824299962
1.370948502 -2.424349484 0.676007687
1.355100854 -2.431018152 0.675535974
1.34481292 -2.43006239 0.674120721
1.637080438 -3.636275559 -0.89042853
1.623131386 -3.635043004 -0.888903071
1.613552274 -3.643574948 -0.889774729
1.198515466 -2.442770355 0.79958068
1.598049492 -3.63867875 -0.887377609
1.185975918 -2.436084341 0.796197402
1.588047706 -3.646248811 -0.888031353
1.178913796 -2.440575417 0.796479333
1.57646682 -3.650207621 -0.887813438
1.394973884 -2.430352176 0.651586719
1.387028814 -2.433774106 0.651360278
1.376197892 -2.432084104 0.649774915
1.3653903 -2.430350475 0.648189493
1.237366166 -2.439608455 0.774522423
1.228577845 -2.440814724 0.773705123
1.218503987 -2.439407946 0.772070583
1.211014354 -2.443134822 0.772070584
1.201389811 -2.44252155 0.770708379
1.251911837 -2.445769381 0.749688373
1.239159271 -2.439277265 0.746529565
1.230801149 -2.44134463 0.746003078
0.790271034 -2.684294389 0.855284246
0.752873015 -2.806337734 0.766600314
0.746495918 -2.885005583 0.668134015
0.736628998 -2.998112598 0.572973947
0.756244709 -2.743349058 0.836232827
0.70802267 -3.084438824 0.467485319
0.752046046 -2.829514402 0.740726108
0.745707694 -2.916175926 0.643367341
0.737954306 -2.923190958 0.64441245
0.684910876 -3.208704984 0.362920146
0.729883452 -3.00942748 0.543463883
0.768522266 -2.744387516 0.806941747
0.664653822 -3.434868231 0.130060431
0.71315495 -3.111123506 0.440005416
0.707537609 -3.130689478 0.442463542
0.749528001 -2.85253633 0.715869962
0.642393674 -3.56051233 0.002462694
0.686540756 -3.226095978 0.331950729
0.732883868 -2.939866948 0.616868723
0.687424039 -3.332844636 0.218392174
0.730015783 -3.051128143 0.519705102
0.696552325 -3.821965578 -0.319057278
0.685966806 -3.277064049 0.305524842
0.674916732 -3.385218853 0.188757865
0.722163527 -3.067031179 0.491446757
0.965536347 -4.162131101 -0.917226284
0.716326633 -3.084631416 0.493912424
0.952108502 -4.162214631 -0.916596622
0.939334526 -4.165115708 -0.91659662
0.927188198 -4.170841482 -0.917226285
0.920246666 -4.200408556 -0.923103244
0.90714934 -4.20225605 -0.922893374
0.685742322 -3.181132747 0.385851624
0.891812187 -4.193543427 -0.920374661
0.846607516 -4.235810537 -0.927301078
0.665678199 -3.40805123 0.156954487
0.816177633 -4.288565877 -0.937166003
0.80247714 -4.288166768 -0.936536341
0.790201928 -4.29541653 -0.9375858
0.776672166 -4.295896086 -0.937166003
0.765540788 -4.309810932 -0.939684719
0.753491199 -4.318881519 -0.941153973
0.743869367 -4.342373975 -0.945771546
0.732489132 -4.356205641 -0.948290257
0.718802726 -4.356503168 -0.947870463
0.191145139 -4.695738692 -0.867376773
0.176626966 -4.693354913 -0.866832284
0.424478108 -4.58920569 -0.941607679
0.410483886 -4.591462253 -0.94180789
0.233152319 -4.693325485 -0.913074607
0.39690103 -4.598556754 -0.943008923
0.383278536 -4.605611148 -0.944209957
0.369929504 -4.616531685 -0.94621166
0.35606548 -4.621552264 -0.947012329
-0.112879072 -4.830002693 -0.75526896
-0.127331186 -4.815806651 -0.753106682
0.047618691 -4.73296365 -0.785868514
0.033056548 -4.727169068 -0.784885755
0.148326923 -4.700160768 -0.828923812
-0.410290123 -5.033212666 -0.741113078
0.13396242 -4.702562348 -0.829271008
-0.426647382 -5.042774701 -0.742710303
0.119884855 -4.716734136 -0.831701386
0.105369545 -4.715110652 -0.83135419
-0.690424365 -5.242261013 -0.732294742
-0.707165954 -5.245026802 -0.732980673
-0.723660249 -5.245776003 -0.733392242
-1.030441771 -5.483057595 -0.717562321
-1.047817254 -5.482793064 -0.717945042
-1.318559561 -5.673741501 -0.692829435
-1.335960237 -5.669669487 -0.692829435
-1.688428819 -5.934645752 -0.675305915
-1.710477366 -5.94281156 -0.67682911
-1.978316687 -6.141118116 -0.654336619
-2.439273014 -6.473762632 -0.633367639
-2.461954571 -6.47369504 -0.634097021
-2.966797223 -6.848903759 -0.61298614
-2.990986925 -6.847075889 -0.613640956
-3.551076134 -7.268686792 -0.58683444
-3.584813925 -7.281022977 -0.588715562
-2.392694512 -4.626680339 1.374268237
-2.362104303 -4.976688408 0.966791806
-2.557890736 -4.876121218 1.234538357
-2.634023872 -4.910845399 1.249414962
-2.914236599 -5.433953388 0.910858372
-2.931364264 -5.425857419 0.911004523
-2.505722643 -4.888107712 1.174072198
-2.195192204 -4.595760561 1.236202476
-2.861428049 -5.451430951 0.84873792
-2.877676116 -5.441750981 0.848601366
-3.330631138 -5.500392033 1.193391601
-4.930431186 -8.059372001 -0.339833846
-2.89851847 -4.714504938 1.691568647
-2.831332973 -5.472579063 0.789540428
-2.595513425 -4.988837705 1.144957772
-3.285044439 -5.277824187 1.393805424
-2.672615952 -5.023563842 1.158524145
-5.298291418 -8.369522161 -0.356297125
-4.802996342 -8.064449673 -0.425083873
-4.833366782 -8.059099848 -0.425581541
-2.813347054 -5.513324473 0.733906986
-5.833187233 -8.790913701 -0.379482319
-2.553093497 -4.842109995 1.27282495
-3.601114105 -5.263813543 1.682694021
-2.570678377 -4.839415723 1.274183818
-4.715107116 -8.075064878 -0.514118845
-3.626020568 -5.265482509 1.686775748
-4.749981353 -8.077774834 -0.515216763
-2.945815397 -5.406059005 0.960239793
-6.036576939 -8.581477543 0.007141677
-3.519063272 -5.255306149 1.600164587
-5.050835248 -8.02411262 -0.173113403
-3.793068266 -5.409511557 1.671539241
-3.405959618 -5.26187898 1.521371124
-4.96481847 -8.037569374 -0.263557625
-3.273702642 -5.234945715 1.435665077
-3.630203124 -5.188140441 1.792870996
-3.647765265 -5.179338758 1.793688296
-6.507754259 -8.354745519 0.67964157
-6.482928547 -8.741636126 0.196617665
-6.528098103 -9.247549784 -0.315789503
-3.862168638 -5.350457439 1.800515637
-6.649707399 -8.622595236 0.492176016
-4.677265331 -5.742448516 2.020841823
1.919384132 -2.444306989 0.166562657
2.26274251 -2.501477812 -0.178398684
