1.437784771 12.72421954 3.913963229
1.503884216 12.73141793 3.767276988
1.759013806 13.15571793 3.358040148
1.998321068 13.64495019 2.947617343
3.527822343 21.55794644 0.602546394
1.551283332 16.71826162 3.904084986
2.316893605 13.24538447 2.359850046
4.112966819 17.81557248 -0.6576687
2.340106631 13.87728648 2.331318662
2.024181918 15.11933103 2.956004878
3.841067705 17.62559576 -0.161834527
4.43860255 17.0257049 -1.276334175
3.569340637 17.66302216 0.325552614
4.180111171 17.34409943 -0.807957974
3.915096585 17.65817279 -0.3302353
4.354164783 14.63770954 -1.254211061
4.354615477 13.67958101 -1.314326745
4.011820044 8.134327241 -0.992668163
4.186679186 10.79624404 -1.174375343
4.184881369 10.5982335 -1.155607985
3.963255465 7.075453705 -0.96459902
3.900567198 6.013747677 -0.921924058
3.904357443 5.979330102 -0.918479744
3.841181313 4.607630077 -0.880362164
3.857206859 4.59809789 -0.880797755
3.8728351 5.232540719 -0.901581292
3.886503149 5.217456884 -0.901032571
3.812965503 4.039082342 -0.868327647
3.829421934 4.031663526 -0.86925438
3.792189586 3.528822222 -0.860065806
3.792134505 3.507123977 -0.857608904
3.802876284 3.495473392 -0.857608904
3.769204884 2.573413054 -0.842330125
3.774898213 3.026600289 -0.85288017
3.781855078 3.013163705 -0.852359344
3.742597102 1.771003467 -0.845925595
3.741804535 1.756598489 -0.844524408
3.746287992 1.744696898 -0.844324256
3.743618001 1.729497129 -0.842522705
3.746234526 1.716779168 -0.841922189
3.745524719 1.661144662 -0.837118054
3.712407171 0.928521793 -0.854471433
3.716800368 1.257021452 -0.842295019
3.712246487 0.70160401 -0.843575289
3.668931568 -0.884579461 -0.84270363
3.657014345 -1.001346402 -0.846626211
3.653925223 -1.012561219 -0.846626212
3.656439791 -1.025347697 -0.847933759
3.664543739 -1.039757465 -0.850548794
3.664150821 -1.051803092 -0.851202596
3.673961807 -1.091318397 -0.855778922
3.654107395 -1.380004615 -0.838516978
3.647223251 -1.480666355 -0.8450236
3.653520972 -1.496295528 -0.847542314
3.649686055 -1.520941591 -0.848801642
3.639594659 -1.529858355 -0.847542314
3.642985673 -1.544451928 -0.849431307
3.637331166 -1.555236706 -0.849221437
3.654089993 -1.57568012 -0.854258805
3.661515738 -1.700257356 -0.866642445
3.659824029 -1.713140791 -0.867481976
3.656319441 -1.725195358 -0.867901771
3.653658432 -1.737664412 -0.868531436
3.649191699 -1.749288144 -0.868741361
3.642047099 -1.759624778 -0.868321567
3.636312044 -2.000487233 -0.847927355
3.637870371 -2.015908015 -0.849728906
3.322206151 -2.387733598 -0.296781519
3.314864991 -2.39791466 -0.296781519
3.408482107 -2.469171695 -0.460648518
3.308298882 -2.408660401 -0.29685385
3.633130688 -2.45704967 -0.852228398
3.612317826 -2.47541159 -0.850893195
3.227144334 -2.39270942 -0.144503062
3.438113176 -2.444002985 -0.501728482
3.150772557 -2.42511877 0.002706377
3.41929263 -2.446450229 -0.500074988
3.08253185 -2.4010413 0.145254579
3.344670238 -2.421287615 -0.339110903
3.618658402 -2.837256741 -0.84868255
3.067286086 -2.404322201 0.144883093
3.257300955 -2.386276522 -0.182863888
3.599640829 -2.858183869 -0.848319557
3.616522478 -2.907947121 -0.856486944
3.001077671 -2.410910618 0.283976004
3.609113069 -2.920265871 -0.856849937
3.609287647 -2.938775788 -0.859027891
3.18128343 -2.419536857 -0.035856575
2.92013347 -2.403298759 0.418331157
3.160346411 -2.418953331 -0.035704072
3.095104834 -2.398239051 0.108002291
3.459134611 -2.492997267 -0.548408987
3.370207302 -2.443126663 -0.381096433
2.849009518 -2.4190116 0.552097361
3.274544596 -2.401665623 -0.223269756
3.013947491 -2.422840417 0.248172934
2.947212568 -2.398427447 0.382419263
3.193347205 -2.416032403 -0.073111793
2.765320642 -2.437213047 0.684101681
2.932142488 -2.401154305 0.381417877
2.695363525 -2.390288858 0.807711461
2.709131442 -2.417387217 0.814055899
2.698797932 -2.42307961 0.813180784
3.112264257 -2.413393859 0.071150849
2.868543576 -2.406945805 0.516207481
3.308498742 -2.398602187 -0.263760534
3.297899838 -2.406388287 -0.263502893
3.376245662 -2.465361607 -0.423981892
3.030874171 -2.408343481 0.211690544
3.221792863 -2.39494548 -0.111993169
2.620672062 -2.458060875 0.947982255
2.798702163 -2.43588853 0.651154096
2.96506921 -2.399191872 0.348054753
2.7852881 -2.439272135 0.64977121
2.894804236 -2.399922242 0.481833179
3.141774061 -2.423446839 0.034419136
2.713245083 -2.434971059 0.779231123
2.876764577 -2.399896488 0.480053801
2.547911024 -2.49645761 1.090297374
3.059637122 -2.420032209 0.176325446
2.652993189 -2.454286143 0.91437977
2.638354962 -2.455808767 0.91192704
2.810685695 -2.431321565 0.615638064
2.982178566 -2.416256733 0.313870512
2.56856349 -2.450359912 1.043176517
2.744912588 -2.432668148 0.746746293
2.730122689 -2.434556282 0.744751264
2.899189854 -2.406152543 0.446725968
2.673928419 -2.457299105 0.881451783
2.836105428 -2.440754456 0.583602632
2.756578077 -2.443210778 0.713793952
3.603433429 -3.321093831 -0.863816728
2.619866218 -2.445652241 0.977911579
2.603912617 -2.445752561 0.974752773
3.60246997 -3.84759646 -0.875134517
3.58728866 -3.855019793 -0.874315608
1.143350385 -11.81948034 3.13298458
1.537267494 -13.28297847 2.346712943
0.878291369 -11.74722644 3.600612315
1.223258815 -11.79802241 3.000921781
2.886061235 -2.449254724 0.491993569
3.278861717 -2.408467468 -0.212437982
