-1.331580333 5.098993564 -0.97264537
-1.55769132 7.178067801 -0.803904545
-1.530881917 7.16045486 -0.801402222
-1.127631623 5.368086681 -0.805002105
-1.112359849 5.37733405 -0.805873345
-1.892772887 9.383858517 -0.694419513
-1.860867405 9.373968498 -0.693261931
-1.526170044 6.838378559 -0.833379514
-1.504543046 6.840118868 -0.833025222
-2.041192279 9.391379143 -0.789294354
-1.451265144 5.419553305 -0.988979925
-1.465371319 6.483714065 -0.854951564
-1.44180614 6.471721809 -0.852782968
-1.38562705 5.304486269 -0.966412355
-1.888974674 8.590990996 -0.805316906
-1.862609022 8.596745968 -0.805316906
-1.447580398 9.379221218 -0.429788944
-1.386354211 6.059092935 -0.860837286
-1.368630515 6.067182577 -0.861386064
-1.674335938 7.742392883 -0.803365934
-0.867281046 6.27602818 -0.520330183
-0.841085581 6.227300093 -0.516073934
-1.588892303 9.372921793 -0.5226829
-0.95963977 6.264418374 -0.58021472
-0.726975184 9.39090139 0.006411309
-1.763962014 9.388853231 -0.61660063
-1.732792864 9.381463981 -0.615763304
-0.868510152 9.390542345 -0.084604297
-1.03902411 9.400174859 -0.172675279
-1.010820627 9.409283145 -0.172784803
-0.252000707 9.891955519 0.367854458
-0.220241191 9.829741106 0.365514022
-1.173902637 9.366048186 -0.263334555
-1.144071068 9.360675896 -0.26308356
-0.320696759 9.388951337 0.259128303
-0.291921409 9.390890417 0.25915587
-0.462602987 9.412100664 0.170245426
0.350740961 9.854965282 0.727449403
-0.601793581 9.399400605 0.081702081
0.20264313 9.856635728 0.632696891
0.025947208 9.880204943 0.540283231
0.961953402 9.937657729 1.104372303
-0.117378243 9.874220014 0.446344961
0.778949756 9.87628331 0.997053837
0.808108273 9.859963544 0.995651935
1.637543535 13.46260316 2.003362397
0.630326102 9.891753639 0.904487983
1.397006727 13.52346032 1.874188209
0.65768359 9.845059165 0.900398568
0.482105823 9.841308259 0.805744969
2.516883719 13.87976542 2.617980043
2.296497505 13.88028531 2.469096061
1.093370334 9.916020994 1.182870151
1.116739671 9.850456122 1.175452116
1.01174197 4.169342263 0.316493468
1.019289236 4.144913135 0.314874963
1.824487815 13.55041728 2.132530536
1.029348574 4.131121705 0.31406571
3.480568332 13.8105843 3.193216723
1.030789662 4.083463805 0.310681537
1.027254225 4.017479079 0.305899546
1.034074374 3.993068765 0.304281041
1.041766531 3.972513613 0.302956805
1.050877875 3.957731937 0.302073971
1.054194531 3.874225216 0.296188459
1.04753964 3.803668398 0.291038619
1.042603995 3.740874657 0.286477343
3.127788395 12.92354578 2.842061571
1.044601706 3.704063698 0.283902452
1.048025186 3.673030021 0.281768934
2.952865622 11.57748241 2.553821376
2.883752212 12.95965588 2.703089825
1.074682236 3.519582647 0.27146931
1.085180954 3.515316141 0.271395729
1.102496711 3.53291468 0.273014234
2.7034654 13.50885334 2.669688244
2.708319477 13.320592 2.634112617
2.682658397 12.99013536 2.570381185
1.367185009 5.084341092 0.6746427
1.380953542 5.073423427 0.673753041
1.396775578 5.070118866 0.673880118
1.416799634 4.490285896 0.603340048
1.02249632 2.563711589 0.102606942
1.42484306 4.467962977 0.600925165
1.02140376 2.538312932 0.10171536
1.426069213 4.424863689 0.59571411
1.423428169 4.325580407 0.583512563
1.164720771 2.82177854 0.225194455
1.408527917 4.23648225 0.572073656
1.172605698 2.816350506 0.225047306
1.037083053 3.111834111 0.179366379
1.41235982 4.204873385 0.568387766
1.416967149 4.176098739 0.565083165
1.419160224 4.140767477 0.560888904
1.415309606 4.088590882 0.55440684
1.419008377 4.058949026 0.550975163
1.411311675 3.997522529 0.543222147
1.409913143 3.954867571 0.538011033
1.407930361 3.911326061 0.532672899
1.412808672 3.887411531 0.530003805
1.416528507 3.860710251 0.526953418
1.13995006 2.783423921 0.193030502
1.417686301 3.827511949 0.523013313
1.414138079 3.782265285 0.517420967
1.009951243 2.874635937 0.13771898
1.017095639 2.866816508 0.137493213
1.012746705 2.827005019 0.135732209
1.010881496 2.79476274 0.134332439
1.019108191 2.790709777 0.134287288
1.020063124 2.766949269 0.133293902
1.388187779 3.706866158 0.469333085
1.381997841 3.656144982 0.463445815
1.387898724 3.637970684 0.461679641
1.389334951 3.575699668 0.454850408
1.399350233 3.474556923 0.444135579
1.054324034 2.610236318 0.1272433
1.393929695 3.430687378 0.439072522
1.390687901 2.555339379 0.321801643
1.401865634 2.55716177 0.322571258
1.332979961 2.655175365 0.299005991
1.409704276 2.552848973 0.322571258
1.448017612 3.120253484 0.440780151
1.282114211 2.760107395 0.277716802
1.457163366 3.114897792 0.440653044
1.39790523 3.294632044 0.424354348
1.285508323 2.745338191 0.276626304
1.213656329 2.856504723 0.253802323
1.383393678 3.232810914 0.4169364
1.295625127 2.744983853 0.276989803
1.224376956 2.857348246 0.254209839
1.390157371 3.221257573 0.415994438
1.40003357 3.216977528 0.415994439
1.407502181 3.207211088 0.415287974
1.216140123 2.767486973 0.247200541
1.409699925 3.185623946 0.413050804
1.229873862 2.775588828 0.248260074
1.45310498 2.962871137 0.422859151
1.23065882 2.754512876 0.246711515
1.388393159 3.036231714 0.395859988
1.3989488 3.034663343 0.396213206
1.404485958 3.022252253 0.395153495
1.40023472 2.941948183 0.386322591
1.541065588 2.526042899 0.407913143
1.473162609 2.570570034 0.379645396
1.503850149 2.605555457 0.385491985
1.478439807 2.543474022 0.376976329
1.47320777 2.516669973 0.373671729
1.48847758 2.524955432 0.375578242
1.412656681 2.608231913 0.351705464
1.802371769 2.584849989 0.584834855
1.505331078 2.53572952 0.377866018
1.815377012 2.586551073 0.586477141
1.82500574 2.583378583 0.587024551
1.836341507 2.582575203 0.588119428
1.845400469 2.578528314 0.588484387
1.746872184 2.572408493 0.545711036
2.060937081 2.583650135 0.740985553
2.071297187 2.580358945 0.741860668
2.098169517 2.581230365 0.745798569
2.109785583 2.579312822 0.74711124
2.020465763 2.582467674 0.700848212
2.034428547 2.583940237 0.70293837
1.924835343 2.572723055 0.654176107
1.935076922 2.569936748 0.654974094
1.948870577 2.571797849 0.65696918
1.963882197 2.575156842 0.659363203
1.859055697 2.599129649 0.619242867
1.867594525 2.594210778 0.619433125
2.36942924 2.605136112 0.929104271
1.878424881 2.592443739 0.620384355
2.383938495 2.604987551 0.931655351
1.888104852 2.589048227 0.62095507
2.403053498 2.609753559 0.935992185
1.897781823 2.585617835 0.621525786
2.285931033 2.596012359 0.875136012
2.305457157 2.602047879 0.879550928
2.317945129 2.600028249 0.881267841
2.326558276 2.593626319 0.881513114
2.206056623 2.601534413 0.827908931
2.220335334 2.602146512 0.830267664
2.240336023 2.609331188 0.834749219
2.129338069 2.592036259 0.780001646
2.146589113 2.596752325 0.783398873
2.749371641 2.639003336 1.164835243
2.167626166 2.605879481 0.788154966
2.76506669 2.637817359 1.168050559
2.779392284 2.635243766 1.170681272
2.643631492 2.622228563 1.094207513
2.66942835 2.631618394 1.101538047
2.538061808 2.617105017 1.032242534
2.556830544 2.620324616 1.036601424
2.570924122 2.61864712 1.039053318
2.585707686 2.617592622 1.041777609
2.452235223 2.626918396 0.980543956
2.461604057 2.620789078 0.981070387
2.473608595 2.617431648 0.98264979
2.487610339 2.616122516 0.985018954
9.363964094 -9.282005667 3.478656235
9.981194583 -9.272208142 3.857356069
8.998861362 -9.240885674 3.263364607
8.203234963 -9.24685825 2.771421593
9.659554407 -9.298569922 3.658416019
8.689719706 -9.254026353 3.081189271
7.898757769 -9.236702964 2.597715905
7.22667145 -9.287739226 2.184052509
8.441022712 -9.265044932 2.914361543
7.664615857 -9.244512185 2.444930665
7.002351 -9.288469803 2.0414468
6.386712875 -9.275656144 1.663598875
6.358784132 -9.296022702 1.663745025
7.442181102 -9.262557044 2.30251815
7.41434168 -9.286112655 2.302708407
6.778112463 -9.284396246 1.904277965
6.672600083 -10.29464533 1.691193962
6.101902035 -10.42943074 1.336570781
6.568764622 -9.304166093 1.776389683
6.473816259 -10.40761603 1.570565241
5.892024194 -10.44976743 1.207339382
4.719567709 -9.283805766 0.668369735
4.284503646 -9.331288937 0.381711197
5.746165192 -10.57349158 1.098144607
5.848929395 -10.84173651 1.124135093
4.597675427 -9.336831314 0.569112866
4.09972103 -9.315932443 0.280745298
5.526731837 -10.490645 0.969648742
3.849060156 -10.14645632 0.007386722
4.397450629 -9.306899015 0.46526437
3.943603277 -9.357279226 0.183449613
3.660799051 -10.1272193 -0.096607324
3.223864969 -10.17141677 -0.383795847
3.194737533 -10.18793441 -0.384047468
2.358902585 -8.240497928 -0.62177969
3.978601854 -10.14320505 0.094513839
1.792341288 -6.662936357 -0.755163264
3.520723628 -10.14463771 -0.196060089
1.773422925 -6.674168356 -0.755816054
3.037472393 -10.13476479 -0.479146805
0.792984676 -3.186803422 -0.865029449
0.784818356 -3.195794918 -0.866812462
0.920508974 -3.778721642 -0.868418385
0.776832071 -3.205706129 -0.868850225
1.386365053 -5.721370089 -0.863954317
0.910508261 -3.788170634 -0.869943847
0.766993419 -3.208074387 -0.868850225
2.185181522 -7.825270736 -0.667253725
1.367425251 -5.71982254 -0.863083075
1.105732225 -4.639503517 -0.880263117
0.900458217 -3.797593548 -0.871469307
1.089017676 -4.632343991 -0.87826666
1.67409526 -6.385670294 -0.785190946
1.650265624 -6.374433814 -0.783183044
2.772513603 -9.373815567 -0.537450428
0.766878 -3.07441515 -0.866657067
3.340783986 -10.15019133 -0.298109305
0.889587528 -3.601343797 -0.86454502
0.744760541 -3.025240166 -0.852146796
0.878303928 -3.603109765 -0.864318044
0.744128378 -3.063128625 -0.862172059
1.053942121 -4.367605077 -0.873019095
0.867245604 -3.605787588 -0.864318046
2.04069238 -7.326291317 -0.69627593
1.042810967 -4.380367234 -0.874926502
0.735750837 -3.111755071 -0.87457173
2.012656371 -7.312354576 -0.69436131
1.298566871 -5.514358026 -0.885626226
1.027123241 -4.373989541 -0.873019094
0.729486629 -3.128088264 -0.878529062
1.283654605 -5.526977455 -0.887016324
1.568996707 -6.0698509 -0.806348684
1.549631453 -6.071752939 -0.805966022
0.740885023 -2.959950001 -0.866815398
2.543598949 -8.818389478 -0.592382368
0.850292543 -3.437979504 -0.862162495
0.733876912 -2.970613969 -0.869274865
1.011683897 -4.143170221 -0.871347452
0.842966357 -3.453786781 -0.86547395
0.717696686 -2.943879964 -0.860803437
0.99988607 -4.150064386 -0.872148121
0.839418303 -3.485640007 -0.872806456
0.712036224 -2.960096718 -0.864902506
0.988508543 -4.158831482 -0.873349153
0.826699317 -3.479690918 -0.870677674
1.226400743 -5.215400729 -0.889548112
1.893194207 -6.972485675 -0.732735919
1.207942791 -5.208567886 -0.887746442
1.868443263 -6.965769338 -0.731424259
1.455502058 -5.78680818 -0.826403802
1.437264206 -5.78932361 -0.826129441
0.709789273 -2.86139184 -0.870696572
0.815222625 -3.332634309 -0.872101254
0.69872686 -2.854240492 -0.8678641
0.959699697 -3.970599151 -0.876927106
0.799082057 -3.310624528 -0.865695961
0.688840948 -2.851709581 -0.866447893
0.949327846 -3.981133304 -0.878606229
0.792738073 -3.329088346 -0.869884022
0.684090593 -2.870602133 -0.871546296
1.145241298 -4.870023134 -0.881870795
0.93196046 -3.962136845 -0.873778729
1.135857398 -4.897497465 -0.886210727
4.542113687 -9.261677093 0.552776922
1.4650232 2.412593964 0.352471336
